ply
format ascii 1.0
element vertex 1043
property float x
property float y
property float z
property uchar red
property uchar green
property uchar blue
end_header
-0.02934053 -0.09044688 0.81069989 11 65 182
-0.02751504 -0.09012270 0.80779413 13 67 185
-0.02570259 -0.08980083 0.80490918 15 71 177
-0.02398840 -0.08980083 0.80490918 20 76 181
-0.02223451 -0.08964075 0.80347437 60 116 221
-0.02052338 -0.08964075 0.80347437 33 87 193
-0.01881225 -0.08964075 0.80347437 16 64 172
-0.01707070 -0.08948125 0.80204468 19 64 170
-0.01536261 -0.08948125 0.80204468 63 98 192
-0.01365453 -0.08948125 0.80204468 188 209 255
-0.01194644 -0.08948125 0.80204468 254 254 255
-0.01023836 -0.08948125 0.80204468 254 248 249
-0.00853028 -0.08948125 0.80204468 234 217 217
-0.00682219 -0.08948125 0.80204468 238 140 149
-0.00511411 -0.08948125 0.80204468 253 165 179
-0.00340602 -0.08948125 0.80204468 255 227 211
-0.00169794 -0.08948125 0.80204468 255 233 210
0.00001015 -0.08948125 0.80204468 255 213 208
0.00171823 -0.08948125 0.80204468 247 184 180
0.00342631 -0.08948125 0.80204468 254 154 150
0.00514355 -0.08964075 0.80347437 241 137 134
0.00686692 -0.08980083 0.80490918 250 128 131
0.00858110 -0.08980083 0.80490918 255 140 144
0.01029529 -0.08980083 0.80490918 255 156 163
0.01205252 -0.09012270 0.80779413 255 206 206
0.01382239 -0.09044688 0.81069989 255 249 240
0.01557692 -0.09060984 0.81216058 255 251 241
-0.13498213 -0.08563979 0.78255054 41 84 193
-0.13331557 -0.08563979 0.78255054 64 106 205
-0.13164900 -0.08563979 0.78255054 73 111 195
-0.12998242 -0.08563979 0.78255054 63 101 188
-0.12831586 -0.08563979 0.78255054 49 89 186
-0.12664929 -0.08563979 0.78255054 40 81 179
-0.12498273 -0.08563979 0.78255054 34 76 177
-0.12331615 -0.08563979 0.78255054 44 86 181
-0.12164959 -0.08563979 0.78255054 80 122 208
-0.11998302 -0.08563979 0.78255054 88 124 209
-0.11831645 -0.08563979 0.78255054 62 92 180
-0.11664989 -0.08563979 0.78255054 47 84 177
-0.11498331 -0.08563979 0.78255054 39 79 176
-0.11351382 -0.08578873 0.78391150 25 73 179
-0.11184435 -0.08578873 0.78391150 25 76 185
-0.11017489 -0.08578873 0.78391150 11 66 182
-0.10850542 -0.08578873 0.78391150 4 60 177
-0.10683595 -0.08578873 0.78391150 4 63 185
-0.10571806 -0.08623867 0.78802295 3 62 184
-0.10458837 -0.08669335 0.79217773 6 61 191
-0.10326427 -0.08699915 0.79497198 9 55 180
-0.10175070 -0.08715286 0.79637653 141 121 172
-0.10023177 -0.08730711 0.79778607 204 176 215
-0.09853276 -0.08730711 0.79778607 242 179 163
-0.09683375 -0.08730711 0.79778607 247 183 164
-0.09530341 -0.08746191 0.79920056 251 185 160
-0.09360138 -0.08746191 0.79920056 252 186 160
-0.09206258 -0.08761726 0.80062012 254 188 159
-0.09035754 -0.08761726 0.80062012 255 190 161
-0.08881023 -0.08777316 0.80204468 255 191 162
-0.08710215 -0.08777316 0.80204468 252 192 172
-0.08539407 -0.08777316 0.80204468 238 177 164
-0.08368598 -0.08777316 0.80204468 138 117 161
-0.08197790 -0.08777316 0.80204468 62 52 114
-0.08026981 -0.08777316 0.80204468 46 56 134
-0.07856173 -0.08777316 0.80204468 140 154 235
-0.07685365 -0.08777316 0.80204468 236 177 170
-0.07514556 -0.08777316 0.80204468 240 179 168
-0.07343748 -0.08777316 0.80204468 244 181 158
-0.07185725 -0.08792963 0.80347437 248 185 161
-0.07014612 -0.08792963 0.80347437 249 186 160
-0.06843499 -0.08792963 0.80347437 250 187 161
-0.06672386 -0.08792963 0.80347437 250 187 161
-0.06501273 -0.08792963 0.80347437 250 187 160
-0.06330161 -0.08792963 0.80347437 252 189 159
-0.06159048 -0.08792963 0.80347437 252 191 172
-0.05987935 -0.08792963 0.80347437 231 172 163
-0.05816822 -0.08792963 0.80347437 164 117 135
-0.05645709 -0.08792963 0.80347437 180 138 170
-0.05484372 -0.08808664 0.80490918 226 179 179
-0.05312954 -0.08808664 0.80490918 237 190 180
-0.05141535 -0.08808664 0.80490918 242 190 166
-0.04961258 -0.08792963 0.80347437 241 189 163
-0.04790144 -0.08792963 0.80347437 243 186 161
-0.04619032 -0.08792963 0.80347437 243 186 161
-0.04455861 -0.08808664 0.80490918 240 184 163
-0.04284443 -0.08808664 0.80490918 204 160 155
-0.04113025 -0.08808664 0.80490918 106 99 143
-0.03941606 -0.08808664 0.80490918 61 73 145
-0.03770188 -0.08808664 0.80490918 23 66 184
-0.03605207 -0.08824422 0.80634906 25 70 190
-0.03433482 -0.08824422 0.80634906 23 71 193
-0.03273469 -0.08856107 0.80924438 13 65 184
-0.03101127 -0.08856107 0.80924438 10 64 182
-0.02923537 -0.08840237 0.80779413 11 66 180
-0.02741677 -0.08808664 0.80490918 27 82 195
-0.02565677 -0.08792963 0.80347437 32 82 195
-0.02394564 -0.08792963 0.80347437 26 75 188
-0.02219495 -0.08777316 0.80204468 17 67 181
-0.02048686 -0.08777316 0.80204468 13 62 176
-0.01877878 -0.08777316 0.80204468 19 67 175
-0.01707070 -0.08777316 0.80204468 21 64 168
-0.01536261 -0.08777316 0.80204468 81 111 184
-0.01365453 -0.08777316 0.80204468 215 235 255
-0.01194644 -0.08777316 0.80204468 251 255 254
-0.01023836 -0.08777316 0.80204468 253 252 249
-0.00853028 -0.08777316 0.80204468 240 234 230
-0.00682219 -0.08777316 0.80204468 246 169 175
-0.00511411 -0.08777316 0.80204468 253 145 155
-0.00339997 -0.08761726 0.80062012 254 193 187
-0.00169492 -0.08761726 0.80062012 255 224 214
0.00001013 -0.08761726 0.80062012 255 246 225
0.00171518 -0.08761726 0.80062012 255 250 228
0.00342023 -0.08761726 0.80062012 255 245 232
0.00513440 -0.08777316 0.80204468 255 235 222
0.00685468 -0.08792963 0.80347437 255 210 199
0.00856581 -0.08792963 0.80347437 253 161 159
0.01029529 -0.08808664 0.80490918 255 119 138
0.01200947 -0.08808664 0.80490918 255 193 200
0.01377285 -0.08840237 0.80779413 255 250 243
0.01554891 -0.08872036 0.81069989 253 247 237
-0.13474820 -0.08382769 0.78119434 60 107 204
-0.13308452 -0.08382769 0.78119434 105 150 234
-0.13142084 -0.08382769 0.78119434 124 163 226
-0.12975716 -0.08382769 0.78119434 129 167 226
-0.12809348 -0.08382769 0.78119434 130 165 215
-0.12621106 -0.08368266 0.77984277 124 158 211
-0.12455025 -0.08368266 0.77984277 120 153 212
-0.12288946 -0.08368266 0.77984277 137 167 218
-0.12143876 -0.08382769 0.78119434 163 190 231
-0.11998302 -0.08397322 0.78255054 165 189 231
-0.11831645 -0.08397322 0.78255054 161 182 225
-0.11664989 -0.08397322 0.78255054 153 176 222
-0.11498331 -0.08397322 0.78255054 137 161 208
-0.11331675 -0.08397322 0.78255054 112 144 208
-0.11165018 -0.08397322 0.78255054 97 132 202
-0.10979300 -0.08382769 0.78119434 31 81 178
-0.10794225 -0.08368266 0.77984277 5 58 162
-0.10628143 -0.08368266 0.77984277 0 58 175
-0.10480195 -0.08382769 0.78119434 6 65 183
-0.10331733 -0.08397322 0.78255054 15 76 198
-0.10165076 -0.08397322 0.78255054 5 64 184
-0.09998419 -0.08397322 0.78255054 57 72 159
-0.09831763 -0.08397322 0.78255054 147 150 222
-0.09681915 -0.08411926 0.78391150 232 174 174
-0.09531544 -0.08426581 0.78527722 241 182 175
-0.09397050 -0.08456045 0.78802295 250 185 162
-0.09245390 -0.08470854 0.78940302 253 188 164
-0.09109180 -0.08500629 0.79217773 255 190 165
-0.08956213 -0.08515594 0.79357239 255 192 166
-0.08802707 -0.08530613 0.79497198 250 191 165
-0.08633405 -0.08530613 0.79497198 207 166 175
-0.08464103 -0.08530613 0.79497198 128 95 123
-0.08294801 -0.08530613 0.79497198 36 56 144
-0.08125498 -0.08530613 0.79497198 22 63 174
-0.07956197 -0.08530613 0.79497198 24 57 156
-0.07786894 -0.08530613 0.79497198 100 132 229
-0.07604181 -0.08515594 0.79357239 221 166 167
-0.07422109 -0.08500629 0.79217773 236 178 175
-0.07253403 -0.08500629 0.79217773 245 187 160
-0.07084695 -0.08500629 0.79217773 247 188 161
-0.06928165 -0.08515594 0.79357239 250 187 161
-0.06759161 -0.08515594 0.79357239 251 188 161
-0.06590156 -0.08515594 0.79357239 253 190 160
-0.06432477 -0.08530613 0.79497198 254 192 164
-0.06263175 -0.08530613 0.79497198 250 190 166
-0.06093872 -0.08530613 0.79497198 204 166 169
-0.05914140 -0.08515594 0.79357239 117 94 122
-0.05735039 -0.08500629 0.79217773 39 55 123
-0.05556566 -0.08485715 0.79078796 50 86 175
-0.05388155 -0.08485715 0.79078796 168 149 183
-0.05219744 -0.08485715 0.79078796 218 184 203
-0.05051333 -0.08485715 0.79078796 238 194 182
-0.04882922 -0.08485715 0.79078796 241 197 182
-0.04722796 -0.08500629 0.79217773 244 194 175
-0.04562107 -0.08515594 0.79357239 244 195 178
-0.04400851 -0.08530613 0.79497198 219 176 177
-0.04231549 -0.08530613 0.79497198 133 108 132
-0.04069424 -0.08545685 0.79637653 66 94 185
-0.03899822 -0.08545685 0.79637653 36 74 178
-0.03730221 -0.08545685 0.79637653 11 65 190
-0.03560620 -0.08545685 0.79637653 10 65 186
-0.03391018 -0.08545685 0.79637653 7 62 181
-0.03221417 -0.08545685 0.79637653 20 76 191
-0.03051816 -0.08545685 0.79637653 32 88 201
-0.02872066 -0.08515594 0.79357239 17 73 186
-0.02693577 -0.08485715 0.79078796 19 74 188
-0.02525166 -0.08485715 0.79078796 22 77 190
-0.02356755 -0.08485715 0.79078796 13 68 181
-0.02188344 -0.08485715 0.79078796 11 66 179
-0.02019933 -0.08485715 0.79078796 15 70 182
-0.01854776 -0.08500629 0.79217773 32 81 189
-0.01686069 -0.08500629 0.79217773 48 91 189
-0.01517362 -0.08500629 0.79217773 117 144 195
-0.01348655 -0.08500629 0.79217773 235 251 254
-0.01179948 -0.08500629 0.79217773 253 254 253
-0.01011240 -0.08500629 0.79217773 253 254 250
-0.00842533 -0.08500629 0.79217773 252 253 246
-0.00673826 -0.08500629 0.79217773 254 225 221
-0.00504233 -0.08485715 0.79078796 235 186 184
-0.00335822 -0.08485715 0.79078796 238 149 151
-0.00167705 -0.08500629 0.79217773 247 148 150
0.00001004 -0.08515594 0.79357239 255 169 169
0.00170308 -0.08530613 0.79497198 254 191 191
0.00340812 -0.08560810 0.79778607 255 215 199
0.00511619 -0.08575989 0.79920056 254 213 199
0.00681822 -0.08575989 0.79920056 248 183 174
0.00853538 -0.08591222 0.80062012 234 131 129
0.01025865 -0.08606508 0.80204468 251 131 143
0.01200947 -0.08637246 0.80490918 255 211 213
0.01372366 -0.08637246 0.80490918 254 254 243
0.01549317 -0.08668204 0.80779413 248 246 234
-0.13405122 -0.08173902 0.77715369 19 67 186
-0.13239615 -0.08173902 0.77715369 37 85 200
-0.13074107 -0.08173902 0.77715369 49 100 199
-0.12908600 -0.08173902 0.77715369 56 104 200
-0.12743092 -0.08173902 0.77715369 75 114 200
-0.12577585 -0.08173902 0.77715369 107 143 214
-0.12412077 -0.08173902 0.77715369 156 186 228
-0.12246570 -0.08173902 0.77715369 166 192 233
-0.12081062 -0.08173902 0.77715369 163 184 223
-0.11915555 -0.08173902 0.77715369 159 178 217
-0.11750047 -0.08173902 0.77715369 162 180 219
-0.11584540 -0.08173902 0.77715369 172 191 227
-0.11419032 -0.08173902 0.77715369 160 179 215
-0.11253526 -0.08173902 0.77715369 167 189 224
-0.11088018 -0.08173902 0.77715369 187 209 242
-0.10922511 -0.08173902 0.77715369 87 123 196
-0.10720037 -0.08145813 0.77448303 44 83 165
-0.10555098 -0.08145813 0.77448303 6 59 176
-0.10408042 -0.08159834 0.77581604 12 67 187
-0.10242820 -0.08159834 0.77581604 18 75 199
-0.10094972 -0.08173902 0.77715369 6 62 187
-0.09929465 -0.08173902 0.77715369 7 51 173
-0.09763957 -0.08173902 0.77715369 58 89 198
-0.09598450 -0.08173902 0.77715369 171 141 180
-0.09449234 -0.08188020 0.77849591 205 169 197
-0.09299503 -0.08202186 0.77984277 239 185 176
-0.09165135 -0.08230666 0.78255054 247 191 179
-0.08998479 -0.08230666 0.78255054 251 192 172
-0.08847182 -0.08244980 0.78391150 238 185 177
-0.08710532 -0.08273758 0.78664771 198 151 153
-0.08557938 -0.08288223 0.78802295 91 87 142
-0.08390116 -0.08288223 0.78802295 24 51 144
-0.08222294 -0.08288223 0.78802295 22 60 178
-0.08054472 -0.08288223 0.78802295 24 67 194
-0.07872885 -0.08273758 0.78664771 15 56 181
-0.07705356 -0.08273758 0.78664771 31 71 196
-0.07524695 -0.08259344 0.78527722 170 136 171
-0.07357457 -0.08259344 0.78527722 211 174 205
-0.07190220 -0.08259344 0.78527722 244 186 169
-0.07035239 -0.08273758 0.78664771 245 187 169
-0.06891764 -0.08302737 0.78940302 252 189 165
-0.06723648 -0.08302737 0.78940302 253 191 165
-0.06567033 -0.08317304 0.79078796 254 192 164
-0.06398622 -0.08317304 0.79078796 242 189 173
-0.06230210 -0.08317304 0.79078796 190 146 149
-0.06061800 -0.08317304 0.79078796 89 84 140
-0.05893388 -0.08317304 0.79078796 41 71 173
-0.05714951 -0.08302737 0.78940302 27 66 179
-0.05537138 -0.08288223 0.78802295 21 63 183
-0.05359945 -0.08273758 0.78664771 84 88 159
-0.05192416 -0.08273758 0.78664771 139 132 189
-0.05016132 -0.08259344 0.78527722 188 164 185
-0.04857357 -0.08273758 0.78664771 209 183 202
-0.04689827 -0.08273758 0.78664771 213 184 193
-0.04530204 -0.08288223 0.78802295 202 177 191
-0.04362382 -0.08288223 0.78802295 118 120 164
-0.04194559 -0.08288223 0.78802295 39 54 117
-0.04026737 -0.08288223 0.78802295 3 58 178
-0.03858915 -0.08288223 0.78802295 8 62 182
-0.03691093 -0.08288223 0.78802295 14 68 188
-0.03523270 -0.08288223 0.78802295 18 72 188
-0.03355448 -0.08288223 0.78802295 27 82 195
-0.03187626 -0.08288223 0.78802295 43 97 211
-0.03019804 -0.08288223 0.78802295 28 83 197
-0.02847004 -0.08273758 0.78664771 13 67 186
-0.02679475 -0.08273758 0.78664771 10 65 184
-0.02511946 -0.08273758 0.78664771 10 65 179
-0.02344416 -0.08273758 0.78664771 15 70 183
-0.02176887 -0.08273758 0.78664771 33 88 199
-0.02009357 -0.08273758 0.78664771 17 71 182
-0.01841828 -0.08273758 0.78664771 24 72 181
-0.01677226 -0.08288223 0.78802295 44 84 183
-0.01509404 -0.08288223 0.78802295 142 159 209
-0.01341581 -0.08288223 0.78802295 239 251 253
-0.01173759 -0.08288223 0.78802295 250 254 249
-0.01005937 -0.08288223 0.78802295 252 253 248
-0.00838114 -0.08288223 0.78802295 253 251 247
-0.00670292 -0.08288223 0.78802295 254 253 244
-0.00502470 -0.08288223 0.78802295 251 248 236
-0.00334648 -0.08288223 0.78802295 254 220 211
-0.00167118 -0.08302737 0.78940302 241 191 183
0.00001002 -0.08331921 0.79217773 255 148 156
0.00170008 -0.08346590 0.79357239 248 132 140
0.00339610 -0.08361311 0.79497198 253 123 135
0.00510714 -0.08390908 0.79778607 250 116 130
0.00681822 -0.08405786 0.79920056 255 112 131
0.00852024 -0.08405786 0.79920056 253 126 141
0.01024043 -0.08420716 0.80062012 251 174 184
0.01196673 -0.08435699 0.80204468 254 233 232
0.01372366 -0.08465827 0.80490918 253 255 241
0.01546546 -0.08480972 0.80634906 240 238 225
-0.13547272 -0.07994611 0.77581604 11 58 177
-0.13382050 -0.07994611 0.77581604 8 54 180
-0.13194118 -0.07980875 0.77448303 10 57 183
-0.13006831 -0.07967185 0.77315460 13 66 192
-0.12820184 -0.07953542 0.77183069 6 57 185
-0.12634177 -0.07939947 0.77051135 7 52 185
-0.12470084 -0.07939947 0.77051135 45 86 193
-0.12348207 -0.07967185 0.77315460 120 153 212
-0.12183552 -0.07967185 0.77315460 142 172 227
-0.12018896 -0.07967185 0.77315460 150 175 225
-0.11854240 -0.07967185 0.77315460 155 178 225
-0.11689584 -0.07967185 0.77315460 163 183 228
-0.11524928 -0.07967185 0.77315460 170 189 231
-0.11360273 -0.07967185 0.77315460 152 169 209
-0.11176447 -0.07953542 0.77183069 188 204 234
-0.11012073 -0.07953542 0.77183069 197 212 242
-0.10847698 -0.07953542 0.77183069 129 157 215
-0.10646863 -0.07926398 0.76919647 82 114 179
-0.10483049 -0.07926398 0.76919647 14 65 180
-0.10319237 -0.07926398 0.76919647 5 60 182
-0.10155424 -0.07926398 0.76919647 6 59 187
-0.09991611 -0.07926398 0.76919647 6 58 186
-0.09811056 -0.07912894 0.76788605 7 60 189
-0.09647522 -0.07912894 0.76788605 10 55 180
-0.09516412 -0.07939947 0.77051135 47 74 174
-0.09400527 -0.07980875 0.77448303 103 118 202
-0.09283441 -0.08022226 0.77849591 155 138 182
-0.09133422 -0.08036105 0.77984277 177 153 189
-0.08998479 -0.08064008 0.78255054 187 151 173
-0.08831821 -0.08064008 0.78255054 149 131 169
-0.08680235 -0.08078033 0.78391150 79 81 142
-0.08543003 -0.08106229 0.78664771 30 60 159
-0.08375474 -0.08106229 0.78664771 9 59 184
-0.08207944 -0.08106229 0.78664771 9 57 189
-0.08026407 -0.08092106 0.78527722 10 58 193
-0.07845502 -0.08078033 0.78391150 12 58 189
-0.07678555 -0.08078033 0.78391150 6 53 183
-0.07498567 -0.08064008 0.78255054 59 74 159
-0.07331910 -0.08064008 0.78255054 118 131 213
-0.07165253 -0.08064008 0.78255054 200 158 176
-0.07010768 -0.08078033 0.78391150 221 178 193
-0.06867709 -0.08106229 0.78664771 243 188 179
-0.06711893 -0.08120400 0.78802295 242 188 178
-0.06555532 -0.08134621 0.78940302 230 178 167
-0.06398622 -0.08148893 0.79078796 166 137 154
-0.06230210 -0.08148893 0.79078796 67 75 141
-0.06061800 -0.08148893 0.79078796 38 69 160
-0.05883067 -0.08134621 0.78940302 19 74 190
-0.05704960 -0.08120400 0.78802295 47 83 187
-0.05527474 -0.08106229 0.78664771 115 140 233
-0.05350607 -0.08092106 0.78527722 166 175 228
-0.05183369 -0.08092106 0.78527722 161 165 207
-0.05016132 -0.08092106 0.78527722 116 114 179
-0.04848895 -0.08092106 0.78527722 85 83 151
-0.04689827 -0.08106229 0.78664771 70 83 153
-0.04522298 -0.08106229 0.78664771 73 89 160
-0.04354769 -0.08106229 0.78664771 32 72 162
-0.04187239 -0.08106229 0.78664771 18 61 157
-0.04019710 -0.08106229 0.78664771 16 67 182
-0.03852180 -0.08106229 0.78664771 11 62 178
-0.03684651 -0.08106229 0.78664771 23 75 191
-0.03517122 -0.08106229 0.78664771 27 80 195
-0.03349592 -0.08106229 0.78664771 16 71 184
-0.03182063 -0.08106229 0.78664771 10 64 181
-0.03014534 -0.08106229 0.78664771 10 64 183
-0.02847004 -0.08106229 0.78664771 15 69 187
-0.02674807 -0.08092106 0.78527722 17 71 188
-0.02507569 -0.08092106 0.78527722 18 73 188
-0.02344416 -0.08106229 0.78664771 46 101 215
-0.02176887 -0.08106229 0.78664771 35 90 203
-0.02009357 -0.08106229 0.78664771 14 68 181
-0.01841828 -0.08106229 0.78664771 17 66 181
-0.01674299 -0.08106229 0.78664771 49 86 185
-0.01506769 -0.08106229 0.78664771 180 187 226
-0.01339240 -0.08106229 0.78664771 246 252 253
-0.01171711 -0.08106229 0.78664771 250 253 248
-0.01002432 -0.08092106 0.78527722 250 235 233
-0.00835194 -0.08092106 0.78527722 250 221 221
-0.00667957 -0.08092106 0.78527722 253 231 226
-0.00501593 -0.08106229 0.78664771 255 241 234
-0.00334064 -0.08106229 0.78664771 255 252 232
-0.00166825 -0.08120400 0.78802295 252 248 225
0.00000999 -0.08134621 0.78940302 254 185 187
0.00169709 -0.08163214 0.79217773 255 178 180
0.00339610 -0.08192009 0.79497198 255 209 200
0.00510714 -0.08221007 0.79778607 255 204 197
0.00681822 -0.08235583 0.79920056 255 204 205
0.00852024 -0.08235583 0.79920056 255 226 222
0.01024043 -0.08250211 0.80062012 255 251 240
0.01196673 -0.08264891 0.80204468 254 253 242
0.01372366 -0.08294409 0.80490918 254 255 244
0.01546546 -0.08309247 0.80634906 230 228 214
-0.13500798 -0.07802529 0.77315460 68 107 204
-0.13290549 -0.07775854 0.77051135 39 87 200
-0.13059483 -0.07736182 0.76658014 19 68 182
-0.12852512 -0.07709957 0.76398157 13 64 181
-0.12668338 -0.07696912 0.76268890 8 59 178
-0.12505911 -0.07696912 0.76268890 6 55 183
-0.12343484 -0.07696912 0.76268890 13 61 182
-0.12181058 -0.07696912 0.76268890 41 84 190
-0.12018630 -0.07696912 0.76268890 57 96 198
-0.11876299 -0.07709957 0.76398157 66 103 201
-0.11733484 -0.07723047 0.76527863 79 113 205
-0.11570506 -0.07723047 0.76527863 97 126 212
-0.11407527 -0.07723047 0.76527863 113 141 214
-0.11244548 -0.07723047 0.76527863 126 153 220
-0.11100416 -0.07736182 0.76658014 177 199 244
-0.10955793 -0.07749361 0.76788605 175 195 234
-0.10792259 -0.07749361 0.76788605 99 137 210
-0.10628725 -0.07749361 0.76788605 38 81 164
-0.10447393 -0.07736182 0.76658014 6 59 180
-0.10284137 -0.07736182 0.76658014 7 60 186
-0.10120882 -0.07736182 0.76658014 7 59 187
-0.09957626 -0.07736182 0.76658014 6 59 187
-0.09794370 -0.07736182 0.76658014 10 64 192
-0.09631114 -0.07736182 0.76658014 9 63 191
-0.09483988 -0.07749361 0.76788605 1 57 183
-0.09352319 -0.07775854 0.77051135 3 52 176
-0.09235588 -0.07815936 0.77448303 19 54 169
-0.09117648 -0.07856433 0.77849591 40 67 174
-0.08967342 -0.07870026 0.77984277 56 64 157
-0.08831821 -0.07897352 0.78255054 32 59 164
-0.08665165 -0.07897352 0.78255054 16 66 183
-0.08513288 -0.07911086 0.78391150 12 64 190
-0.08346342 -0.07911086 0.78391150 5 57 191
-0.08179395 -0.07911086 0.78391150 3 56 188
-0.07998537 -0.07897352 0.78255054 3 55 188
-0.07831881 -0.07897352 0.78255054 14 67 196
-0.07651939 -0.07883665 0.78119434 17 70 198
-0.07472620 -0.07870026 0.77984277 2 54 174
-0.07306541 -0.07870026 0.77984277 9 61 179
-0.07140460 -0.07870026 0.77984277 78 87 173
-0.06998597 -0.07897352 0.78255054 117 121 200
-0.06843822 -0.07911086 0.78391150 158 140 182
-0.06700180 -0.07938699 0.78664771 155 138 182
-0.06544071 -0.07952578 0.78802295 113 104 152
-0.06387416 -0.07966505 0.78940302 55 71 139
-0.06219300 -0.07966505 0.78940302 13 70 173
-0.06051183 -0.07966505 0.78940302 9 64 177
-0.05872782 -0.07952578 0.78802295 3 56 179
-0.05695004 -0.07938699 0.78664771 103 133 215
-0.05527474 -0.07938699 0.78664771 196 211 250
-0.05350607 -0.07924869 0.78527722 209 217 247
-0.05174355 -0.07911086 0.78391150 192 198 227
-0.05007408 -0.07911086 0.78391150 114 118 191
-0.04848895 -0.07924869 0.78527722 78 83 160
-0.04681657 -0.07924869 0.78527722 88 107 182
-0.04522298 -0.07938699 0.78664771 135 155 223
-0.04354769 -0.07938699 0.78664771 109 131 199
-0.04187239 -0.07938699 0.78664771 90 115 185
-0.04019710 -0.07938699 0.78664771 87 120 200
-0.03852180 -0.07938699 0.78664771 53 88 174
-0.03678232 -0.07924869 0.78527722 45 83 179
-0.03510994 -0.07924869 0.78527722 32 76 176
-0.03343757 -0.07924869 0.78527722 25 76 180
-0.03176519 -0.07924869 0.78527722 14 66 178
-0.03009282 -0.07924869 0.78527722 10 63 178
-0.02842044 -0.07924869 0.78527722 23 76 191
-0.02674807 -0.07924869 0.78527722 28 81 196
-0.02507569 -0.07924869 0.78527722 19 74 191
-0.02340332 -0.07924869 0.78527722 16 71 189
-0.02173094 -0.07924869 0.78527722 12 65 179
-0.02005857 -0.07924869 0.78527722 18 71 184
-0.01841828 -0.07938699 0.78664771 25 73 183
-0.01674299 -0.07938699 0.78664771 65 101 191
-0.01506769 -0.07938699 0.78664771 212 219 244
-0.01339240 -0.07938699 0.78664771 248 252 253
-0.01171711 -0.07938699 0.78664771 249 250 246
-0.01002432 -0.07924869 0.78527722 243 201 205
-0.00835194 -0.07924869 0.78527722 237 160 170
-0.00667957 -0.07924869 0.78527722 248 162 171
-0.00501593 -0.07938699 0.78664771 252 179 187
-0.00334064 -0.07938699 0.78664771 254 214 206
-0.00166825 -0.07952578 0.78802295 250 207 195
0.00000999 -0.07966505 0.78940302 253 158 164
0.00169709 -0.07994507 0.79217773 255 193 199
0.00340210 -0.08036881 0.79637653 255 255 233
0.00510714 -0.08051105 0.79778607 255 255 234
0.00681822 -0.08065381 0.79920056 254 255 239
0.00852024 -0.08065381 0.79920056 253 255 239
0.01024043 -0.08079707 0.80062012 253 255 241
0.01196673 -0.08094083 0.80204468 253 255 242
0.01369919 -0.08108511 0.80347437 253 254 243
0.01543784 -0.08122990 0.80490918 215 212 198
-0.13408800 -0.07585827 0.76788605 75 110 198
-0.13222740 -0.07572926 0.76658014 54 104 205
-0.12993192 -0.07534484 0.76268890 62 111 211
-0.12809091 -0.07521758 0.76140057 70 118 213
-0.12625612 -0.07509073 0.76011658 67 115 211
-0.12442750 -0.07496432 0.75883691 60 107 206
-0.12281143 -0.07496432 0.75883691 47 91 195
-0.12139974 -0.07509073 0.76011658 32 72 185
-0.11998328 -0.07521758 0.76140057 17 57 177
-0.11836176 -0.07521758 0.76140057 6 47 179
-0.11693777 -0.07534484 0.76268890 8 50 176
-0.11531350 -0.07534484 0.76268890 18 59 180
-0.11388192 -0.07547255 0.76398157 26 68 185
-0.11244548 -0.07560069 0.76527863 43 86 201
-0.11081570 -0.07560069 0.76527863 73 112 209
-0.10937160 -0.07572926 0.76658014 65 101 190
-0.10773904 -0.07572926 0.76658014 18 66 182
-0.10610649 -0.07572926 0.76658014 3 56 181
-0.10447393 -0.07572926 0.76658014 10 67 193
-0.10266677 -0.07560069 0.76527863 12 69 196
-0.10103698 -0.07560069 0.76527863 6 61 188
-0.09940720 -0.07560069 0.76527863 4 59 186
-0.09777741 -0.07560069 0.76527863 5 60 189
-0.09614763 -0.07560069 0.76527863 5 61 190
-0.09467859 -0.07572926 0.76658014 2 63 192
-0.09320454 -0.07585827 0.76788605 2 62 192
-0.09219746 -0.07637874 0.77315460 2 57 191
-0.09070650 -0.07650997 0.77448303 8 58 191
-0.08951854 -0.07690639 0.77849591 15 58 190
-0.08801262 -0.07703945 0.77984277 10 58 190
-0.08665165 -0.07730695 0.78255054 3 58 190
-0.08498508 -0.07730695 0.78255054 4 57 191
-0.08331851 -0.07730695 0.78255054 7 59 193
-0.08151043 -0.07717297 0.78119434 8 61 191
-0.07984676 -0.07717297 0.78119434 8 60 188
-0.07804781 -0.07703945 0.77984277 18 72 201
-0.07625508 -0.07690639 0.77849591 13 68 197
-0.07446853 -0.07677380 0.77715369 3 60 189
-0.07281345 -0.07677380 0.77715369 2 58 187
-0.07115838 -0.07677380 0.77715369 4 54 183
-0.06974380 -0.07703945 0.77984277 14 62 188
-0.06831940 -0.07730695 0.78255054 33 68 179
-0.06676875 -0.07744140 0.78391150 23 60 175
-0.06521269 -0.07757631 0.78527722 5 52 176
-0.06376249 -0.07784756 0.78802295 10 60 183
-0.06208427 -0.07784756 0.78802295 9 63 185
-0.06040604 -0.07784756 0.78802295 19 73 187
-0.05862533 -0.07771170 0.78664771 26 80 187
-0.05685082 -0.07757631 0.78527722 97 127 199
-0.05517844 -0.07757631 0.78527722 177 193 240
-0.05341302 -0.07744140 0.78391150 199 208 241
-0.05174355 -0.07744140 0.78391150 177 183 215
-0.05007408 -0.07744140 0.78391150 146 150 191
-0.04840462 -0.07744140 0.78391150 180 184 229
-0.04681657 -0.07757631 0.78527722 210 217 254
-0.04514420 -0.07757631 0.78527722 219 225 250
-0.04347182 -0.07757631 0.78527722 171 180 217
-0.04179944 -0.07757631 0.78527722 202 214 249
-0.04012707 -0.07757631 0.78527722 164 187 223
-0.03845469 -0.07757631 0.78527722 163 185 225
-0.03678232 -0.07757631 0.78527722 145 166 212
-0.03510994 -0.07757631 0.78527722 118 146 197
-0.03343757 -0.07757631 0.78527722 101 135 196
-0.03176519 -0.07757631 0.78527722 54 94 179
-0.03009282 -0.07757631 0.78527722 54 95 190
-0.02842044 -0.07757631 0.78527722 41 85 191
-0.02670155 -0.07744140 0.78391150 25 71 180
-0.02503208 -0.07744140 0.78391150 18 65 176
-0.02336262 -0.07744140 0.78391150 22 70 180
-0.02169315 -0.07744140 0.78391150 18 65 173
-0.02005857 -0.07757631 0.78527722 25 71 179
-0.01838619 -0.07757631 0.78527722 39 84 188
-0.01674299 -0.07771170 0.78664771 86 121 200
-0.01506769 -0.07771170 0.78664771 233 242 254
-0.01339240 -0.07771170 0.78664771 248 254 253
-0.01171711 -0.07771170 0.78664771 250 253 248
-0.01004181 -0.07771170 0.78664771 252 235 234
-0.00836652 -0.07771170 0.78664771 248 213 214
-0.00669122 -0.07771170 0.78664771 251 167 176
-0.00501593 -0.07771170 0.78664771 239 123 134
-0.00334064 -0.07771170 0.78664771 250 129 139
-0.00166825 -0.07784756 0.78802295 255 146 154
0.00000999 -0.07798389 0.78940302 255 164 168
0.00169411 -0.07812070 0.79078796 255 205 208
0.00340210 -0.07867280 0.79637653 255 242 228
0.00510714 -0.07881204 0.79778607 254 249 234
0.00681822 -0.07895177 0.79920056 254 255 240
0.00852024 -0.07895177 0.79920056 254 254 240
0.01024043 -0.07909201 0.80062012 253 255 242
0.01196673 -0.07923274 0.80204468 253 254 242
0.01369919 -0.07937398 0.80347437 251 252 241
0.01543784 -0.07951572 0.80490918 202 198 184
-0.12971245 -0.07359605 0.76140057 43 86 182
-0.12787491 -0.07347194 0.76011658 55 100 196
-0.12604356 -0.07334825 0.75883691 64 108 203
-0.12442750 -0.07334825 0.75883691 75 118 211
-0.12281143 -0.07334825 0.75883691 80 122 215
-0.12119537 -0.07334825 0.75883691 83 121 214
-0.11978095 -0.07347194 0.76011658 78 117 212
-0.11836176 -0.07359605 0.76140057 66 105 206
-0.11674023 -0.07359605 0.76140057 61 100 202
-0.11511871 -0.07359605 0.76140057 54 92 196
-0.11349718 -0.07359605 0.76140057 33 73 189
-0.11206496 -0.07372057 0.76268890 18 61 185
-0.11044069 -0.07372057 0.76268890 7 52 173
-0.10900085 -0.07384553 0.76398157 2 49 167
-0.10737383 -0.07384553 0.76398157 0 54 180
-0.10574681 -0.07384553 0.76398157 1 57 187
-0.10411978 -0.07384553 0.76398157 6 65 193
-0.10249276 -0.07384553 0.76398157 7 66 195
-0.10086573 -0.07384553 0.76398157 1 59 187
-0.09923871 -0.07384553 0.76398157 1 58 187
-0.09761169 -0.07384553 0.76398157 1 59 185
-0.09598466 -0.07384553 0.76398157 5 65 191
-0.09435764 -0.07384553 0.76398157 13 74 203
-0.09288806 -0.07397090 0.76527863 5 65 195
-0.09156921 -0.07422293 0.76788605 1 57 190
-0.09055091 -0.07473218 0.77315460 3 57 189
-0.08905711 -0.07486058 0.77448303 7 57 188
-0.08770913 -0.07511872 0.77715369 4 57 189
-0.08605405 -0.07511872 0.77715369 1 58 191
-0.08469102 -0.07537865 0.77984277 3 59 191
-0.08303021 -0.07537865 0.77984277 7 62 193
-0.08108883 -0.07511872 0.77715369 9 63 193
-0.07929704 -0.07498943 0.77581604 6 59 189
-0.07764481 -0.07498943 0.77581604 3 60 188
-0.07586201 -0.07486058 0.77448303 1 59 187
-0.07408533 -0.07473218 0.77315460 3 61 189
-0.07243877 -0.07473218 0.77315460 7 65 192
-0.07103590 -0.07498943 0.77581604 6 63 195
-0.06950330 -0.07511872 0.77715369 12 69 200
-0.06808300 -0.07537865 0.77984277 18 71 197
-0.06665283 -0.07564038 0.78255054 7 62 191
-0.06498626 -0.07564038 0.78255054 1 59 195
-0.06354032 -0.07590394 0.78527722 5 61 193
-0.06186795 -0.07590394 0.78527722 16 69 192
-0.06019557 -0.07590394 0.78527722 44 95 204
-0.05852319 -0.07590394 0.78527722 59 108 202
-0.05675195 -0.07577193 0.78391150 122 150 212
-0.05508248 -0.07577193 0.78391150 180 194 237
-0.05341302 -0.07577193 0.78391150 197 207 240
-0.05165372 -0.07564038 0.78255054 180 189 224
-0.04998715 -0.07564038 0.78255054 212 219 249
-0.04840462 -0.07577193 0.78391150 204 211 246
-0.04673515 -0.07577193 0.78391150 217 224 252
-0.04506568 -0.07577193 0.78391150 202 209 242
-0.04339622 -0.07577193 0.78391150 179 185 221
-0.04172675 -0.07577193 0.78391150 202 211 241
-0.04005728 -0.07577193 0.78391150 165 182 210
-0.03838782 -0.07577193 0.78391150 204 219 242
-0.03671835 -0.07577193 0.78391150 211 223 244
-0.03504888 -0.07577193 0.78391150 216 234 251
-0.03337942 -0.07577193 0.78391150 146 170 193
-0.03170995 -0.07577193 0.78391150 110 134 183
-0.03004048 -0.07577193 0.78391150 162 185 241
-0.02837102 -0.07577193 0.78391150 91 124 200
-0.02670155 -0.07577193 0.78391150 57 92 174
-0.02503208 -0.07577193 0.78391150 90 120 191
-0.02336262 -0.07577193 0.78391150 109 138 208
-0.02169315 -0.07577193 0.78391150 80 119 193
-0.02002368 -0.07577193 0.78391150 44 82 159
-0.01835422 -0.07577193 0.78391150 41 74 185
-0.01671382 -0.07590394 0.78527722 116 141 222
-0.01504144 -0.07590394 0.78527722 245 253 255
-0.01339240 -0.07603641 0.78664771 250 254 253
-0.01171711 -0.07603641 0.78664771 252 252 248
-0.01004181 -0.07603641 0.78664771 253 245 238
-0.00836652 -0.07603641 0.78664771 254 237 228
-0.00669122 -0.07603641 0.78664771 255 180 181
-0.00501593 -0.07603641 0.78664771 239 122 128
-0.00334064 -0.07603641 0.78664771 249 132 142
-0.00166825 -0.07616933 0.78802295 255 149 160
0.00000997 -0.07616933 0.78802295 254 161 165
0.00169115 -0.07630273 0.78940302 255 165 169
0.00339610 -0.07684102 0.79497198 255 183 184
0.00510714 -0.07711302 0.79778607 255 201 201
0.00680615 -0.07711302 0.79778607 255 234 224
0.00852024 -0.07724975 0.79920056 255 244 234
0.01024043 -0.07738696 0.80062012 254 252 242
0.01196673 -0.07752466 0.80204468 254 254 242
0.01369919 -0.07766285 0.80347437 246 247 235
0.01543784 -0.07780154 0.80490918 191 184 168
-0.12260503 -0.07161163 0.75756158 39 79 178
-0.12119537 -0.07173219 0.75883691 45 87 181
-0.11957930 -0.07173219 0.75883691 54 95 188
-0.11816216 -0.07185315 0.76011658 64 102 195
-0.11654337 -0.07185315 0.76011658 75 114 207
-0.11511871 -0.07197452 0.76140057 82 122 215
-0.11349718 -0.07197452 0.76140057 82 123 219
-0.11187566 -0.07197452 0.76140057 77 120 219
-0.11025414 -0.07197452 0.76140057 70 111 210
-0.10900085 -0.07221850 0.76398157 60 101 200
-0.10737383 -0.07221850 0.76398157 49 95 201
-0.10574681 -0.07221850 0.76398157 29 76 184
-0.10376802 -0.07197452 0.76140057 9 63 184
-0.10214650 -0.07197452 0.76140057 2 57 181
-0.10052497 -0.07197452 0.76140057 0 53 175
-0.09923871 -0.07221850 0.76398157 0 55 178
-0.09761169 -0.07221850 0.76398157 0 58 183
-0.09582226 -0.07209631 0.76268890 3 62 188
-0.09419798 -0.07209631 0.76268890 9 71 199
-0.09273062 -0.07221850 0.76398157 2 62 191
-0.09125827 -0.07234111 0.76527863 0 57 187
-0.08993387 -0.07258759 0.76788605 1 57 187
-0.08860040 -0.07283575 0.77051135 5 61 190
-0.08725779 -0.07308562 0.77315460 12 69 199
-0.08590594 -0.07333720 0.77581604 8 67 198
-0.08425371 -0.07333720 0.77581604 1 59 190
-0.08274390 -0.07346365 0.77715369 2 58 190
-0.08108883 -0.07346365 0.77715369 3 59 188
-0.07929704 -0.07333720 0.77581604 3 58 187
-0.07764481 -0.07333720 0.77581604 3 61 188
-0.07586201 -0.07321120 0.77448303 0 60 185
-0.07408533 -0.07308562 0.77315460 3 61 189
-0.07243877 -0.07308562 0.77315460 7 65 193
-0.07103590 -0.07333720 0.77581604 5 62 194
-0.06962334 -0.07359053 0.77849591 4 61 192
-0.06820100 -0.07384561 0.78119434 4 59 188
-0.06665283 -0.07397382 0.78255054 4 60 189
-0.06498626 -0.07397382 0.78255054 5 63 192
-0.06354032 -0.07423156 0.78527722 9 65 192
-0.06186795 -0.07423156 0.78527722 18 72 194
-0.06009088 -0.07410246 0.78391150 33 79 190
-0.05831999 -0.07397382 0.78255054 82 121 204
-0.05665342 -0.07397382 0.78255054 150 172 224
-0.05498685 -0.07397382 0.78255054 150 162 203
-0.05332029 -0.07397382 0.78255054 157 168 209
-0.05165372 -0.07397382 0.78255054 134 145 185
-0.04998715 -0.07397382 0.78255054 162 171 209
-0.04832058 -0.07397382 0.78255054 186 194 231
-0.04665401 -0.07397382 0.78255054 210 217 246
-0.04498744 -0.07397382 0.78255054 165 173 207
-0.04332088 -0.07397382 0.78255054 183 193 224
-0.04165431 -0.07397382 0.78255054 184 194 226
-0.03998774 -0.07397382 0.78255054 184 197 224
-0.03832117 -0.07397382 0.78255054 210 221 244
-0.03665460 -0.07397382 0.78255054 214 224 244
-0.03498803 -0.07397382 0.78255054 209 222 247
-0.03332146 -0.07397382 0.78255054 121 137 171
-0.03165490 -0.07397382 0.78255054 152 169 201
-0.02998833 -0.07397382 0.78255054 200 218 250
-0.02832176 -0.07397382 0.78255054 93 116 177
-0.02665519 -0.07397382 0.78255054 138 163 222
-0.02498862 -0.07397382 0.78255054 202 220 249
-0.02332206 -0.07397382 0.78255054 202 220 246
-0.02165549 -0.07397382 0.78255054 152 184 224
-0.01998892 -0.07397382 0.78255054 59 91 140
-0.01835422 -0.07410246 0.78391150 42 70 181
-0.01668475 -0.07410246 0.78391150 143 165 244
-0.01501528 -0.07410246 0.78391150 250 255 255
-0.01334582 -0.07410246 0.78391150 252 253 251
-0.01167635 -0.07410246 0.78391150 240 235 230
-0.01000688 -0.07410246 0.78391150 239 189 189
-0.00833742 -0.07410246 0.78391150 253 161 165
-0.00667957 -0.07423156 0.78527722 254 123 133
-0.00500719 -0.07423156 0.78527722 255 105 118
-0.00333482 -0.07423156 0.78527722 255 156 161
-0.00166534 -0.07436111 0.78664771 255 177 179
0.00000997 -0.07449111 0.78802295 255 175 177
0.00169115 -0.07462157 0.78940302 255 159 162
0.00339012 -0.07501569 0.79357239 255 127 137
0.00509811 -0.07528077 0.79637653 255 129 138
0.00680615 -0.07541401 0.79778607 255 154 161
0.00852024 -0.07554772 0.79920056 255 192 195
0.01022227 -0.07554772 0.79920056 255 241 236
0.01194548 -0.07568192 0.80062012 255 250 241
0.01367482 -0.07581657 0.80204468 240 241 228
-0.11796323 -0.07011612 0.75883691 35 70 169
-0.10345841 -0.06234876 0.67477417 36 73 171
-0.10186887 -0.06225557 0.67376550 37 75 172
-0.10028408 -0.06216265 0.67275989 42 80 179
-0.09885133 -0.06216265 0.67275989 51 90 191
-0.09741858 -0.06216265 0.67275989 64 104 200
-0.10863261 -0.07035300 0.76140057 73 114 208
-0.10701108 -0.07035300 0.76140057 83 123 213
-0.10538956 -0.07035300 0.76140057 84 124 211
-0.10376802 -0.07035300 0.76140057 70 118 214
-0.10214650 -0.07035300 0.76140057 64 113 210
-0.10052497 -0.07035300 0.76140057 63 105 203
-0.09890344 -0.07035300 0.76140057 59 102 201
-0.09728192 -0.07035300 0.76140057 34 86 191
-0.09566039 -0.07035300 0.76140057 17 70 177
-0.09403886 -0.07035300 0.76140057 6 63 182
-0.09226150 -0.07023435 0.76011658 0 56 175
-0.08022556 -0.06216265 0.67275989 0 56 178
-0.07867538 -0.06207000 0.67175726 2 59 182
-0.07724477 -0.06207000 0.67175726 3 62 189
-0.07570133 -0.06197764 0.67075763 8 67 194
-0.07427284 -0.06197764 0.67075763 5 65 191
-0.07284435 -0.06197764 0.67075763 0 58 187
-0.08245956 -0.07156181 0.77448303 0 58 188
-0.08081017 -0.07156181 0.77448303 1 60 187
-0.07902500 -0.07143906 0.77315460 10 70 195
-0.07737845 -0.07143906 0.77315460 8 71 195
-0.07638701 -0.07205704 0.77984277 1 62 186
-0.07459715 -0.07193259 0.77849591 1 59 186
-0.07293921 -0.07193259 0.77849591 2 60 188
-0.07128128 -0.07193259 0.77849591 1 59 189
-0.06962334 -0.07193259 0.77849591 3 61 191
-0.06831940 -0.07230724 0.78255054 2 62 191
-0.06688507 -0.07255919 0.78527722 2 61 190
-0.06521269 -0.07255919 0.78527722 7 65 191
-0.06354032 -0.07255919 0.78527722 8 65 191
-0.06176035 -0.07243300 0.78391150 5 61 186
-0.05998656 -0.07230724 0.78255054 47 84 187
-0.05831999 -0.07230724 0.78255054 162 181 228
-0.05665342 -0.07230724 0.78255054 190 203 228
-0.05498685 -0.07230724 0.78255054 162 172 199
-0.05332029 -0.07230724 0.78255054 186 196 225
-0.05165372 -0.07230724 0.78255054 154 164 197
-0.04998715 -0.07230724 0.78255054 175 183 213
-0.04832058 -0.07230724 0.78255054 193 201 233
-0.04665401 -0.07230724 0.78255054 194 201 236
-0.04498744 -0.07230724 0.78255054 143 150 185
-0.04332088 -0.07230724 0.78255054 139 151 184
-0.04165431 -0.07230724 0.78255054 137 149 181
-0.03998774 -0.07230724 0.78255054 173 182 210
-0.03832117 -0.07230724 0.78255054 192 203 231
-0.03665460 -0.07230724 0.78255054 198 211 236
-0.03498803 -0.07230724 0.78255054 183 196 226
-0.03332146 -0.07230724 0.78255054 148 161 199
-0.03165490 -0.07230724 0.78255054 192 204 231
-0.02998833 -0.07230724 0.78255054 204 216 251
-0.02832176 -0.07230724 0.78255054 116 135 185
-0.02665519 -0.07230724 0.78255054 160 180 223
-0.02498862 -0.07230724 0.78255054 197 212 243
-0.02332206 -0.07230724 0.78255054 195 209 239
-0.02165549 -0.07230724 0.78255054 147 175 220
-0.01998892 -0.07230724 0.78255054 47 75 127
-0.01832235 -0.07230724 0.78255054 54 81 181
-0.01665578 -0.07230724 0.78255054 179 201 255
-0.01498922 -0.07230724 0.78255054 251 255 254
-0.01334582 -0.07243300 0.78391150 252 252 249
-0.01167635 -0.07243300 0.78391150 237 228 221
-0.01000688 -0.07243300 0.78391150 237 176 176
-0.00833742 -0.07243300 0.78391150 253 151 158
-0.00666795 -0.07243300 0.78391150 254 148 155
-0.00499848 -0.07243300 0.78391150 255 143 150
-0.00333482 -0.07255919 0.78527722 255 154 159
-0.00166244 -0.07255919 0.78527722 255 157 160
0.00000995 -0.07268581 0.78664771 253 151 156
0.00168819 -0.07281289 0.78802295 251 147 153
0.00337822 -0.07306837 0.79078796 255 120 132
0.00508912 -0.07345498 0.79497198 255 106 120
0.00679413 -0.07358475 0.79637653 255 101 121
0.00850517 -0.07371500 0.79778607 255 154 167
0.01022227 -0.07384570 0.79920056 255 238 237
0.01192430 -0.07384570 0.79920056 255 248 243
0.01367482 -0.07410849 0.80204468 233 231 221
-0.09455308 -0.06072990 0.67275989 35 73 173
-0.09312032 -0.06072990 0.67275989 41 78 177
-0.09168757 -0.06072990 0.67275989 48 91 185
-0.09025481 -0.06072990 0.67275989 58 103 196
-0.08882207 -0.06072990 0.67275989 74 114 202
-0.08738931 -0.06072990 0.67275989 83 122 210
-0.08582846 -0.06063939 0.67175726 83 129 218
-0.08439784 -0.06063939 0.67175726 80 126 215
-0.08296722 -0.06063939 0.67175726 81 122 215
-0.08153661 -0.06063939 0.67175726 72 113 208
-0.08010600 -0.06063939 0.67175726 64 106 205
-0.07867538 -0.06063939 0.67175726 45 91 195
-0.07712981 -0.06054915 0.67075763 24 76 189
-0.07570133 -0.06054915 0.67075763 10 64 179
-0.07427284 -0.06054915 0.67075763 1 56 173
-0.07284435 -0.06054915 0.67075763 0 55 175
-0.07141587 -0.06054915 0.67075763 0 57 179
-0.06998738 -0.06054915 0.67075763 0 59 183
-0.06855889 -0.06054915 0.67075763 7 67 192
-0.06713041 -0.06054915 0.67075763 5 66 193
-0.07638701 -0.07039625 0.77984277 1 60 187
-0.07472620 -0.07039625 0.77984277 0 58 187
-0.07293921 -0.07027467 0.77849591 0 59 188
-0.07128128 -0.07027467 0.77849591 8 66 196
-0.06998597 -0.07064068 0.78255054 17 75 205
-0.06831940 -0.07064068 0.78255054 2 63 190
-0.06688507 -0.07088681 0.78527722 0 61 188
-0.06521269 -0.07088681 0.78527722 2 62 190
-0.06354032 -0.07088681 0.78527722 3 62 190
-0.06176035 -0.07076353 0.78391150 3 59 187
-0.05998656 -0.07064068 0.78255054 78 106 202
-0.05821891 -0.07051825 0.78119434 204 205 241
-0.05645739 -0.07039625 0.77984277 211 217 238
-0.05479659 -0.07039625 0.77984277 212 220 240
-0.05313578 -0.07039625 0.77984277 215 223 249
-0.05147498 -0.07039625 0.77984277 184 192 222
-0.04981418 -0.07039625 0.77984277 213 219 250
-0.04823684 -0.07051825 0.78119434 192 199 232
-0.04657315 -0.07051825 0.78119434 201 208 239
-0.04490948 -0.07051825 0.78119434 178 185 216
-0.04324580 -0.07051825 0.78119434 141 150 180
-0.04158212 -0.07051825 0.78119434 175 182 210
-0.03991843 -0.07051825 0.78119434 191 194 222
-0.03832117 -0.07064068 0.78255054 191 196 226
-0.03665460 -0.07064068 0.78255054 158 168 200
-0.03498803 -0.07064068 0.78255054 138 149 182
-0.03332146 -0.07064068 0.78255054 168 180 215
-0.03165490 -0.07064068 0.78255054 198 210 242
-0.02998833 -0.07064068 0.78255054 195 207 243
-0.02832176 -0.07064068 0.78255054 134 150 190
-0.02665519 -0.07064068 0.78255054 165 181 222
-0.02498862 -0.07064068 0.78255054 202 218 248
-0.02332206 -0.07064068 0.78255054 208 224 250
-0.02165549 -0.07064068 0.78255054 135 161 222
-0.01998892 -0.07064068 0.78255054 50 76 140
-0.01832235 -0.07064068 0.78255054 69 95 176
-0.01665578 -0.07064068 0.78255054 211 232 255
-0.01498922 -0.07064068 0.78255054 251 255 254
-0.01332265 -0.07064068 0.78255054 252 248 246
-0.01167635 -0.07076353 0.78391150 236 214 211
-0.01000688 -0.07076353 0.78391150 236 174 171
-0.00833742 -0.07076353 0.78391150 255 170 167
-0.00666795 -0.07076353 0.78391150 255 185 181
-0.00499848 -0.07076353 0.78391150 255 196 191
-0.00332902 -0.07076353 0.78391150 255 208 200
-0.00165955 -0.07076353 0.78391150 255 209 199
0.00000993 -0.07088681 0.78527722 254 205 196
0.00168524 -0.07101052 0.78664771 252 203 195
0.00336641 -0.07113467 0.78802295 255 193 191
0.00506234 -0.07138426 0.79078796 255 184 184
0.00679413 -0.07188875 0.79637653 255 180 186
0.00850517 -0.07201598 0.79778607 255 207 208
0.01020418 -0.07201598 0.79778607 254 250 243
0.01192430 -0.07214367 0.79920056 254 251 243
0.01367482 -0.07240041 0.80204468 224 220 209
-0.08582846 -0.05920877 0.67175726 39 78 173
-0.08427225 -0.05912066 0.67075763 44 83 178
-0.08296722 -0.05920877 0.67175726 62 96 192
-0.08153661 -0.05920877 0.67175726 67 103 198
-0.08010600 -0.05920877 0.67175726 73 116 205
-0.07855830 -0.05912066 0.67075763 80 123 213
-0.07712981 -0.05912066 0.67075763 80 123 216
-0.07570133 -0.05912066 0.67075763 78 120 214
-0.07427284 -0.05912066 0.67075763 75 116 212
-0.07284435 -0.05912066 0.67075763 73 114 211
-0.07141587 -0.05912066 0.67075763 59 102 200
-0.06713041 -0.05912066 0.67075763 6 62 179
-0.06570192 -0.05912066 0.67075763 1 56 174
-0.06427343 -0.05912066 0.67075763 1 61 185
-0.07293921 -0.06861673 0.77849591 0 59 183
-0.07128128 -0.06861673 0.77849591 4 64 191
-0.06962334 -0.06861673 0.77849591 10 70 196
-0.06831940 -0.06897411 0.78255054 1 62 187
-0.06665283 -0.06897411 0.78255054 0 61 186
-0.06498626 -0.06897411 0.78255054 2 61 188
-0.06331969 -0.06897411 0.78255054 9 66 194
-0.06165313 -0.06897411 0.78255054 16 69 197
-0.05977899 -0.06873544 0.77984277 96 132 218
-0.05801781 -0.06861673 0.77849591 182 200 240
-0.05635988 -0.06861673 0.77849591 140 155 198
-0.05460763 -0.06849843 0.77715369 184 196 227
-0.05295256 -0.06849843 0.77715369 190 198 229
-0.05129749 -0.06849843 0.77715369 150 157 190
-0.04964241 -0.06849843 0.77715369 177 184 217
-0.04807021 -0.06861673 0.77849591 161 168 202
-0.04641228 -0.06861673 0.77849591 210 218 246
-0.04475435 -0.06861673 0.77849591 200 207 236
-0.04309642 -0.06861673 0.77849591 196 202 229
-0.04143848 -0.06861673 0.77849591 206 212 237
-0.03978055 -0.06861673 0.77849591 170 175 204
-0.03818857 -0.06873544 0.77984277 203 209 237
-0.03652777 -0.06873544 0.77984277 163 171 200
-0.03486697 -0.06873544 0.77984277 171 181 203
-0.03320617 -0.06873544 0.77984277 200 213 235
-0.03160004 -0.06885457 0.78119434 198 210 243
-0.02993636 -0.06885457 0.78119434 183 195 232
-0.02827268 -0.06885457 0.78119434 114 127 170
-0.02660900 -0.06885457 0.78119434 136 149 194
-0.02494532 -0.06885457 0.78119434 188 207 239
-0.02328164 -0.06885457 0.78119434 152 172 201
-0.02165549 -0.06897411 0.78255054 54 85 192
-0.01998892 -0.06897411 0.78255054 34 64 168
-0.01832235 -0.06897411 0.78255054 87 111 182
-0.01665578 -0.06897411 0.78255054 228 247 254
-0.01498922 -0.06897411 0.78255054 250 254 251
-0.01332265 -0.06897411 0.78255054 252 245 241
-0.01165608 -0.06897411 0.78255054 238 208 205
-0.00998951 -0.06897411 0.78255054 238 165 163
-0.00833742 -0.06909406 0.78391150 255 149 147
-0.00666795 -0.06909406 0.78391150 254 148 148
-0.00499848 -0.06909406 0.78391150 248 148 149
-0.00332902 -0.06909406 0.78391150 253 163 160
-0.00165955 -0.06909406 0.78391150 255 177 173
0.00000992 -0.06909406 0.78391150 255 203 193
0.00168231 -0.06921444 0.78527722 255 220 209
0.00336054 -0.06933523 0.78664771 255 240 222
0.00505347 -0.06957809 0.78940302 255 243 226
0.00678214 -0.07006893 0.79497198 255 246 233
0.00849014 -0.07019273 0.79637653 254 249 238
0.01020418 -0.07031696 0.79778607 253 254 246
0.01192430 -0.07044164 0.79920056 254 252 243
0.01365053 -0.07056676 0.80062012 212 206 195
-0.07855830 -0.05769218 0.67075763 32 69 166
-0.07712981 -0.05769218 0.67075763 36 74 173
-0.07570133 -0.05769218 0.67075763 44 85 183
-0.07427284 -0.05769218 0.67075763 60 103 201
-0.07284435 -0.05769218 0.67075763 77 119 214
-0.06713041 -0.05769218 0.67075763 79 126 217
-0.06570192 -0.05769218 0.67075763 68 116 208
-0.06427343 -0.05769218 0.67075763 55 104 206
-0.06284494 -0.05769218 0.67075763 39 88 190
-0.06141646 -0.05769218 0.67075763 11 67 184
-0.05998797 -0.05769218 0.67075763 2 58 175
-0.05855948 -0.05769218 0.67075763 0 55 175
-0.06630748 -0.06695879 0.77849591 0 57 178
-0.06464954 -0.06695879 0.77849591 1 59 184
-0.06299161 -0.06695879 0.77849591 5 64 192
-0.06133368 -0.06695879 0.77849591 9 63 197
-0.05967575 -0.06695879 0.77849591 34 82 198
-0.05801781 -0.06695879 0.77849591 52 95 194
-0.05635988 -0.06695879 0.77849591 43 79 173
-0.05460763 -0.06684335 0.77715369 117 148 224
-0.05295256 -0.06684335 0.77715369 121 141 207
-0.05129749 -0.06684335 0.77715369 147 162 221
-0.04964241 -0.06684335 0.77715369 189 200 235
-0.04807021 -0.06695879 0.77849591 200 211 235
-0.04641228 -0.06695879 0.77849591 220 230 253
-0.04475435 -0.06695879 0.77849591 146 157 190
-0.04309642 -0.06695879 0.77849591 211 222 248
-0.04143848 -0.06695879 0.77849591 175 185 212
-0.03978055 -0.06695879 0.77849591 135 143 172
-0.03812262 -0.06695879 0.77849591 211 219 243
-0.03652777 -0.06707464 0.77984277 194 202 228
-0.03486697 -0.06707464 0.77984277 202 212 238
-0.03320617 -0.06707464 0.77984277 153 165 196
-0.03154536 -0.06707464 0.77984277 168 181 216
-0.02988456 -0.06707464 0.77984277 204 217 245
-0.02822376 -0.06707464 0.77984277 125 138 175
-0.02656296 -0.06707464 0.77984277 146 159 199
-0.02494532 -0.06719089 0.78119434 199 217 245
-0.02328164 -0.06719089 0.78119434 96 115 151
-0.02161796 -0.06719089 0.78119434 20 56 186
-0.01995428 -0.06719089 0.78119434 29 63 186
-0.01829060 -0.06719089 0.78119434 122 141 201
-0.01665578 -0.06730754 0.78255054 237 251 254
-0.01498922 -0.06730754 0.78255054 252 254 249
-0.01332265 -0.06730754 0.78255054 254 240 235
-0.01165608 -0.06730754 0.78255054 248 203 199
-0.00998951 -0.06730754 0.78255054 248 179 175
-0.00832294 -0.06730754 0.78255054 255 174 171
-0.00665637 -0.06730754 0.78255054 254 173 167
-0.00498981 -0.06730754 0.78255054 252 167 160
-0.00332324 -0.06730754 0.78255054 254 157 156
-0.00165667 -0.06730754 0.78255054 255 150 150
0.00000990 -0.06730754 0.78255054 255 141 148
0.00167647 -0.06730754 0.78255054 255 143 149
0.00335468 -0.06754206 0.78527722 255 154 159
0.00503583 -0.06765993 0.78664771 255 172 176
0.00674645 -0.06801604 0.79078796 255 200 200
0.00847516 -0.06837592 0.79497198 254 231 227
0.01018615 -0.06849672 0.79637653 253 254 242
0.01190319 -0.06861795 0.79778607 251 248 238
-0.06570192 -0.05626369 0.67075763 60 109 202
-0.06427343 -0.05626369 0.67075763 80 125 218
-0.06284494 -0.05626369 0.67075763 88 132 225
-0.06141646 -0.05626369 0.67075763 81 129 223
-0.05998797 -0.05626369 0.67075763 74 122 216
-0.05855948 -0.05626369 0.67075763 68 113 217
-0.05713100 -0.05626369 0.67075763 64 111 215
-0.05570251 -0.05626369 0.67075763 41 92 198
