ply
format ascii 1.0
element vertex 1078
property float x
property float y
property float z
property uchar red
property uchar green
property uchar blue
end_header
0.13087386 -0.01001495 0.32686667 228 253 255
0.13156996 -0.01001495 0.32686667 168 185 220
0.13226608 -0.01001495 0.32686667 94 109 154
0.13305869 -0.01002222 0.32710385 69 90 144
0.13375531 -0.01002222 0.32710385 126 153 202
0.13445192 -0.01002222 0.32710385 208 233 255
0.13514854 -0.01002222 0.32710385 226 245 247
0.13574666 -0.01001495 0.32686667 168 188 204
0.13644278 -0.01001495 0.32686667 107 133 174
0.13713889 -0.01001495 0.32686667 183 209 236
0.13783501 -0.01001495 0.32686667 225 247 255
0.13863165 -0.01002222 0.32710385 207 228 234
0.13932828 -0.01002222 0.32710385 159 179 202
0.14002489 -0.01002222 0.32710385 135 154 193
0.14072151 -0.01002222 0.32710385 165 185 222
0.14121318 -0.01000769 0.32662979 214 239 251
0.14190878 -0.01000769 0.32662979 222 246 252
0.14260440 -0.01000769 0.32662979 190 211 241
0.14330002 -0.01000769 0.32662979 123 143 184
0.14410004 -0.01001495 0.32686667 83 109 160
0.14479616 -0.01001495 0.32686667 120 155 208
0.14549228 -0.01001495 0.32686667 209 242 255
0.14618839 -0.01001495 0.32686667 238 255 255
0.14699110 -0.01002222 0.32710385 234 254 251
0.14779497 -0.01002950 0.32734140 225 248 253
0.14849210 -0.01002950 0.32734140 223 248 255
0.14929765 -0.01003679 0.32757932 224 248 254
0.14999529 -0.01003679 0.32757932 206 227 241
0.15080251 -0.01004409 0.32781754 141 162 187
0.15150066 -0.01004409 0.32781754 50 82 184
0.15230956 -0.01005140 0.32805612 42 75 189
0.15311964 -0.01005872 0.32829507 91 127 203
0.15381880 -0.01005872 0.32829507 161 199 229
0.15451796 -0.01005872 0.32829507 218 252 255
0.15510416 -0.01005140 0.32805612 237 255 255
0.15568950 -0.01004409 0.32781754 237 255 255
0.15638763 -0.01004409 0.32781754 232 251 255
0.15697162 -0.01003679 0.32757932 209 229 244
0.15766925 -0.01003679 0.32757932 158 178 221
0.15836688 -0.01003679 0.32757932 89 109 189
0.15906451 -0.01003679 0.32757932 44 63 143
0.15976215 -0.01003679 0.32757932 21 61 174
0.16045978 -0.01003679 0.32757932 28 73 194
0.16115741 -0.01003679 0.32757932 72 114 211
0.16185504 -0.01003679 0.32757932 126 163 230
0.16255267 -0.01003679 0.32757932 145 181 246
0.16325031 -0.01003679 0.32757932 114 143 211
0.16406718 -0.01004409 0.32781754 63 91 160
0.16488524 -0.01005140 0.32805612 35 73 169
0.16582526 -0.01006605 0.32853436 29 77 199
0.16676804 -0.01008074 0.32901395 29 77 199
0.16759105 -0.01008811 0.32925430 32 81 202
0.16853847 -0.01010287 0.32973602 30 79 201
0.16924069 -0.01010287 0.32973602 47 96 192
0.16994292 -0.01010287 0.32973602 96 144 204
0.17052040 -0.01009548 0.32949496 181 225 255
0.17097217 -0.01008074 0.32901395 239 251 254
0.17167285 -0.01008074 0.32901395 248 255 254
0.17224782 -0.01007339 0.32877399 250 254 251
0.17294798 -0.01007339 0.32877399 253 253 249
0.17364816 -0.01007339 0.32877399 253 253 249
0.17434834 -0.01007339 0.32877399 255 240 242
0.17504852 -0.01007339 0.32877399 219 195 198
0.17574870 -0.01007339 0.32877399 221 152 160
0.17644888 -0.01007339 0.32877399 255 129 145
0.17740785 -0.01008811 0.32925430 255 145 160
0.19899031 -0.01048642 0.34225446 253 254 247
0.19956766 -0.01047847 0.34199478 252 253 246
0.19863817 -0.01039174 0.33916412 253 253 247
0.19906090 -0.01037612 0.33865448 253 254 248
0.19933284 -0.01035279 0.33789288 253 254 248
0.19856395 -0.01027576 0.33537881 253 254 247
0.19927820 -0.01027576 0.33537881 253 254 247
0.19969527 -0.01026049 0.33488049 253 254 247
0.19996277 -0.01023767 0.33413574 253 254 247
0.19978577 -0.01019234 0.33265619 251 252 245
0.04998685 -0.00916596 0.32150436 0 37 146
0.05059936 -0.00915290 0.32104639 0 36 144
0.05124658 -0.00914639 0.32081787 0 36 144
0.05192981 -0.00914639 0.32081787 0 36 144
0.05268805 -0.00915943 0.32127521 0 36 145
0.05341032 -0.00916596 0.32150436 0 36 146
0.05417230 -0.00917905 0.32196365 0 36 149
0.05489719 -0.00918561 0.32219379 1 40 156
0.05558335 -0.00918561 0.32219379 6 49 160
0.05626951 -0.00918561 0.32219379 11 54 164
0.05695568 -0.00918561 0.32219379 4 45 154
0.05760067 -0.00917905 0.32196365 0 38 146
0.05824474 -0.00917250 0.32173386 0 36 144
0.05884592 -0.00915943 0.32127521 0 36 144
0.05944538 -0.00914639 0.32081787 0 36 144
0.06012862 -0.00914639 0.32081787 0 36 144
0.06081185 -0.00914639 0.32081787 0 36 146
0.06158275 -0.00915943 0.32127521 1 33 143
0.06226696 -0.00915943 0.32127521 10 45 141
0.06295116 -0.00915943 0.32127521 18 54 149
0.06368076 -0.00916596 0.32150436 5 42 132
0.06445741 -0.00917905 0.32196365 38 75 164
0.06514308 -0.00917905 0.32196365 71 114 181
0.06582875 -0.00917905 0.32196365 62 105 172
0.06651443 -0.00917905 0.32196365 73 103 167
0.06720010 -0.00917905 0.32196365 66 96 162
0.06793430 -0.00918561 0.32219379 75 104 172
0.06862046 -0.00918561 0.32219379 82 111 179
0.06930663 -0.00918561 0.32219379 67 97 156
0.06994279 -0.00917905 0.32196365 94 124 183
0.07052772 -0.00916596 0.32150436 106 130 191
0.07121241 -0.00916596 0.32150436 95 119 180
0.07194843 -0.00917250 0.32173386 117 144 194
0.07273745 -0.00918561 0.32219379 126 152 202
0.07347613 -0.00919218 0.32242426 74 99 148
0.07416279 -0.00919218 0.32242426 96 121 169
0.07495667 -0.00920535 0.32288620 185 207 230
0.07564431 -0.00920535 0.32288620 190 212 234
0.07638667 -0.00921195 0.32311765 189 208 222
0.07713009 -0.00921856 0.32334946 158 179 201
0.07781872 -0.00921856 0.32334946 70 98 168
0.07856370 -0.00922518 0.32358157 3 32 106
0.07936677 -0.00923844 0.32404681 0 33 149
0.08005688 -0.00923844 0.32404681 0 33 149
0.08074699 -0.00923844 0.32404681 0 35 149
0.08149569 -0.00924509 0.32427994 0 37 151
0.08218629 -0.00924509 0.32427994 0 38 152
0.08287690 -0.00924509 0.32427994 0 41 155
0.08350743 -0.00923844 0.32404681 4 52 165
0.08419754 -0.00923844 0.32404681 8 58 170
0.08482667 -0.00923181 0.32381403 0 47 160
0.08551628 -0.00923181 0.32381403 0 38 151
0.08620589 -0.00923181 0.32381403 0 38 151
0.08683313 -0.00922518 0.32358157 0 38 151
0.08752225 -0.00922518 0.32358157 0 39 154
0.08821137 -0.00922518 0.32358157 0 39 154
0.08890049 -0.00922518 0.32358157 0 39 155
0.08958961 -0.00922518 0.32358157 0 39 156
0.09027873 -0.00922518 0.32358157 0 39 155
0.09103320 -0.00923181 0.32381403 0 39 155
0.09172282 -0.00923181 0.32381403 0 39 157
0.09247887 -0.00923844 0.32404681 0 42 160
0.09316898 -0.00923844 0.32404681 1 42 158
0.09379166 -0.00923181 0.32381403 0 40 155
0.09448127 -0.00923181 0.32381403 0 38 154
0.09517088 -0.00923181 0.32381403 0 39 155
0.09586050 -0.00923181 0.32381403 0 40 157
0.09655012 -0.00923181 0.32381403 0 41 158
0.09723973 -0.00923181 0.32381403 0 42 160
0.09792934 -0.00923181 0.32381403 0 42 162
0.09868986 -0.00923844 0.32404681 0 42 164
0.09945146 -0.00924509 0.32427994 0 42 165
0.10021416 -0.00925175 0.32451340 0 42 165
0.10090527 -0.00925175 0.32451340 0 42 167
0.10159637 -0.00925175 0.32451340 0 42 167
0.10221389 -0.00924509 0.32427994 0 41 168
0.10290450 -0.00924509 0.32427994 0 41 168
0.10352063 -0.00923844 0.32404681 0 42 168
0.10413587 -0.00923181 0.32381403 0 43 168
0.10482549 -0.00923181 0.32381403 0 44 168
0.10551510 -0.00923181 0.32381403 0 49 172
0.10620472 -0.00923181 0.32381403 0 52 174
0.10697118 -0.00923844 0.32404681 0 50 173
0.10773874 -0.00924509 0.32427994 0 47 173
0.10842935 -0.00924509 0.32427994 0 46 174
0.10919852 -0.00925175 0.32451340 0 47 176
0.10988962 -0.00925175 0.32451340 0 48 177
0.11058073 -0.00925175 0.32451340 0 48 177
0.11111184 -0.00923844 0.32404681 0 49 177
0.11172163 -0.00923181 0.32381403 0 49 177
0.11241125 -0.00923181 0.32381403 0 51 179
0.11301967 -0.00922518 0.32358157 0 53 181
0.11362722 -0.00921856 0.32334946 0 57 181
0.11439791 -0.00922518 0.32358157 2 63 187
0.11516970 -0.00923181 0.32381403 0 62 187
0.11602602 -0.00924509 0.32427994 0 55 181
0.11680066 -0.00925175 0.32451340 0 52 180
0.11749176 -0.00925175 0.32451340 0 51 180
0.11826801 -0.00925841 0.32474722 0 51 182
0.11895962 -0.00925841 0.32474722 0 51 183
0.11956507 -0.00925175 0.32451340 0 51 184
0.12025618 -0.00925175 0.32451340 0 52 186
0.12094728 -0.00925175 0.32451340 0 54 187
0.12155087 -0.00924509 0.32427994 0 59 189
0.12224149 -0.00924509 0.32427994 3 65 195
0.12302059 -0.00925175 0.32451340 8 76 203
0.12389008 -0.00926509 0.32498135 8 76 203
0.12467207 -0.00927177 0.32521582 2 65 192
0.12563661 -0.00929188 0.32592126 0 58 185
0.12660535 -0.00931208 0.32662979 0 56 184
0.12730096 -0.00931208 0.32662979 0 55 184
0.12790388 -0.00930534 0.32639328 0 53 181
0.12859900 -0.00930534 0.32639328 11 63 191
0.12920055 -0.00929861 0.32615710 65 129 245
0.12989514 -0.00929861 0.32615710 204 235 255
0.13058975 -0.00929861 0.32615710 228 253 255
0.13128436 -0.00929861 0.32615710 217 237 246
0.13197896 -0.00929861 0.32615710 190 208 222
0.13267357 -0.00929861 0.32615710 174 194 218
0.13336816 -0.00929861 0.32615710 192 214 238
0.13406277 -0.00929861 0.32615710 228 247 255
0.13475739 -0.00929861 0.32615710 234 248 251
0.13535405 -0.00929188 0.32592126 190 205 226
0.13604814 -0.00929188 0.32592126 112 134 169
0.13674225 -0.00929188 0.32592126 174 196 231
0.13723788 -0.00927847 0.32545062 220 241 253
0.13793098 -0.00927847 0.32545062 204 225 236
0.13862408 -0.00927847 0.32545062 156 176 202
0.13931718 -0.00927847 0.32545062 116 135 169
0.13990927 -0.00927177 0.32521582 118 138 171
0.14060187 -0.00927177 0.32521582 155 176 212
0.14119260 -0.00926509 0.32498135 213 234 248
0.14198706 -0.00927177 0.32521582 222 242 254
0.14298917 -0.00929188 0.32592126 167 187 206
0.14378723 -0.00929861 0.32615710 121 144 179
0.14448184 -0.00929861 0.32615710 144 171 208
0.14528157 -0.00930534 0.32639328 227 252 255
0.14608246 -0.00931208 0.32662979 235 251 255
0.14677806 -0.00931208 0.32662979 167 183 194
0.14758063 -0.00931884 0.32686667 118 140 166
0.14827673 -0.00931884 0.32686667 144 170 202
0.14908096 -0.00932560 0.32710385 201 227 248
0.14977759 -0.00932560 0.32710385 224 248 254
0.15069292 -0.00933915 0.32757932 205 230 246
0.15139055 -0.00933915 0.32757932 100 121 190
0.15208818 -0.00933915 0.32757932 89 109 185
0.15289693 -0.00934594 0.32781754 156 180 222
0.15359508 -0.00934594 0.32781754 220 247 254
0.15429321 -0.00934594 0.32781754 232 255 255
0.15499135 -0.00934594 0.32781754 235 254 255
0.15557634 -0.00933915 0.32757932 219 238 245
0.15627399 -0.00933915 0.32757932 222 245 252
0.15697162 -0.00933915 0.32757932 225 250 255
0.15755475 -0.00933237 0.32734140 217 240 255
0.15825188 -0.00933237 0.32734140 186 204 238
0.15894899 -0.00933237 0.32734140 101 119 153
0.15964612 -0.00933237 0.32734140 42 73 176
0.16034325 -0.00933237 0.32734140 42 76 196
0.16115741 -0.00933915 0.32757932 99 136 222
0.16185504 -0.00933915 0.32757932 173 214 246
0.16255267 -0.00933915 0.32757932 210 250 255
0.16325031 -0.00933915 0.32757932 201 228 255
0.16394795 -0.00933915 0.32757932 109 134 166
0.16476532 -0.00934594 0.32781754 46 83 160
0.16582526 -0.00936638 0.32853436 26 74 195
0.16664639 -0.00937321 0.32877399 29 77 198
0.16746872 -0.00938005 0.32901395 28 81 201
0.16829225 -0.00938691 0.32925430 30 83 203
0.16899345 -0.00938691 0.32925430 37 89 193
0.16957079 -0.00938005 0.32901395 77 128 205
0.17027147 -0.00938005 0.32901395 160 208 255
0.17097217 -0.00938005 0.32901395 235 250 255
0.17154764 -0.00937321 0.32877399 243 255 255
0.17212227 -0.00936638 0.32853436 248 254 252
0.17282193 -0.00936638 0.32853436 253 253 249
0.17352161 -0.00936638 0.32853436 253 253 249
0.17422127 -0.00936638 0.32853436 255 247 248
0.17492093 -0.00936638 0.32853436 224 209 211
0.17574870 -0.00937321 0.32877399 226 160 166
0.17644888 -0.00937321 0.32877399 254 122 136
0.17727837 -0.00938005 0.32901395 255 137 151
0.17836964 -0.00940064 0.32973602 255 148 157
0.19899031 -0.00975753 0.34225446 254 253 247
0.19896382 -0.00972063 0.34095999 254 253 247
0.19863817 -0.00966943 0.33916412 253 253 248
0.19891145 -0.00964765 0.33840024 253 253 249
0.19933284 -0.00963319 0.33789288 253 253 249
0.19856395 -0.00956151 0.33537881 253 254 247
0.19898209 -0.00954731 0.33488049 253 254 247
0.19954701 -0.00954022 0.33463187 253 254 247
0.19996277 -0.00952607 0.33413574 253 254 247
0.19963844 -0.00947690 0.33241086 253 254 247
0.20019872 -0.00946991 0.33216589 238 236 230
0.04991564 -0.00846918 0.32104639 0 38 146
0.05056335 -0.00846315 0.32081787 0 38 145
0.05121013 -0.00845713 0.32058969 0 38 144
0.05189288 -0.00845713 0.32058969 0 38 144
0.05257563 -0.00845713 0.32058969 0 37 145
0.05333424 -0.00846918 0.32104639 0 35 145
0.05401796 -0.00846918 0.32104639 0 35 149
0.05474067 -0.00847522 0.32127521 0 37 153
0.05546441 -0.00848126 0.32150436 0 41 151
0.05614911 -0.00848126 0.32150436 0 41 149
0.05683380 -0.00848126 0.32150436 0 37 150
0.05751850 -0.00848126 0.32150436 0 35 151
0.05816171 -0.00847522 0.32127521 0 36 146
0.05876215 -0.00846315 0.32081787 0 34 142
0.05940310 -0.00845713 0.32058969 0 33 141
0.06004315 -0.00845112 0.32036185 0 33 141
0.06072541 -0.00845112 0.32036185 0 34 143
0.06145135 -0.00845713 0.32058969 0 36 146
0.06217832 -0.00846315 0.32081787 0 34 151
0.06286155 -0.00846315 0.32081787 0 33 151
0.06359005 -0.00846918 0.32104639 0 36 152
0.06431958 -0.00847522 0.32127521 8 48 164
0.06505015 -0.00848126 0.32150436 4 47 154
0.06573485 -0.00848126 0.32150436 0 30 137
0.06641954 -0.00848126 0.32150436 0 26 135
0.06710424 -0.00848126 0.32150436 0 28 138
0.06778893 -0.00848126 0.32150436 0 28 132
0.06862046 -0.00849945 0.32219379 0 26 129
0.06925712 -0.00849338 0.32196365 0 25 127
0.06984302 -0.00848126 0.32150436 0 31 132
0.07052772 -0.00848126 0.32150436 0 30 129
0.07121241 -0.00848126 0.32150436 0 26 125
0.07194843 -0.00848732 0.32173386 3 40 140
0.07273745 -0.00849945 0.32219379 11 50 149
0.07347613 -0.00850553 0.32242426 15 58 155
0.07421587 -0.00851162 0.32265506 46 88 181
0.07495667 -0.00851772 0.32288620 75 110 173
0.07564431 -0.00851772 0.32288620 69 102 167
0.07638667 -0.00852382 0.32311765 56 85 152
0.07713009 -0.00852994 0.32334946 28 57 129
0.07781872 -0.00852994 0.32334946 0 30 138
0.07856370 -0.00853606 0.32358157 0 31 139
0.07930975 -0.00854219 0.32381403 0 35 151
0.08005688 -0.00854833 0.32404681 0 35 151
0.08074699 -0.00854833 0.32404681 0 36 151
0.08143710 -0.00854833 0.32404681 0 35 150
0.08212721 -0.00854833 0.32404681 0 41 154
0.08275783 -0.00854219 0.32381403 6 55 168
0.08344744 -0.00854219 0.32381403 23 77 187
0.08413705 -0.00854219 0.32381403 14 68 178
0.08482667 -0.00854219 0.32381403 0 46 158
0.08551628 -0.00854219 0.32381403 0 38 150
0.08620589 -0.00854219 0.32381403 0 38 151
0.08683313 -0.00853606 0.32358157 0 38 151
0.08752225 -0.00853606 0.32358157 0 38 153
0.08821137 -0.00853606 0.32358157 0 39 154
0.08890049 -0.00853606 0.32358157 0 38 157
0.08958961 -0.00853606 0.32358157 0 38 158
0.09027873 -0.00853606 0.32358157 0 39 157
0.09103320 -0.00854219 0.32381403 0 40 158
0.09172282 -0.00854219 0.32381403 5 51 165
0.09241243 -0.00854219 0.32381403 10 63 176
0.09310204 -0.00854219 0.32381403 6 58 172
0.09379166 -0.00854219 0.32381403 1 45 160
0.09448127 -0.00854219 0.32381403 0 40 158
0.09517088 -0.00854219 0.32381403 0 40 159
0.09586050 -0.00854219 0.32381403 0 40 160
0.09655012 -0.00854219 0.32381403 0 41 161
0.09723973 -0.00854219 0.32381403 0 41 162
0.09799975 -0.00854833 0.32404681 0 41 164
0.09868986 -0.00854833 0.32404681 0 41 166
0.09945146 -0.00855448 0.32427994 0 40 167
0.10014207 -0.00855448 0.32427994 0 41 167
0.10090527 -0.00856064 0.32451340 0 44 168
0.10152328 -0.00855448 0.32427994 0 48 172
0.10221389 -0.00855448 0.32427994 1 47 172
0.10283052 -0.00854833 0.32404681 0 42 167
0.10352063 -0.00854833 0.32404681 0 41 166
0.10413587 -0.00854219 0.32381403 0 42 167
0.10482549 -0.00854219 0.32381403 0 43 168
0.10551510 -0.00854219 0.32381403 0 44 168
0.10620472 -0.00854219 0.32381403 0 45 172
0.10697118 -0.00854833 0.32404681 0 45 172
0.10773874 -0.00855448 0.32427994 0 44 174
0.10850742 -0.00856064 0.32451340 0 44 175
0.10919852 -0.00856064 0.32451340 0 45 175
0.10988962 -0.00856064 0.32451340 0 46 175
0.11050117 -0.00855448 0.32427994 0 47 175
0.11103202 -0.00854219 0.32381403 0 48 175
0.11172163 -0.00854219 0.32381403 0 48 174
0.11233055 -0.00853606 0.32358157 0 48 174
0.11293859 -0.00852994 0.32334946 0 50 175
0.11362722 -0.00852994 0.32334946 0 52 176
0.11431584 -0.00852994 0.32334946 0 54 178
0.11516970 -0.00854219 0.32381403 0 55 182
0.11602602 -0.00855448 0.32427994 0 53 180
0.11671663 -0.00855448 0.32427994 0 51 181
0.11749176 -0.00856064 0.32451340 0 51 181
0.11818287 -0.00856064 0.32451340 0 51 183
0.11887397 -0.00856064 0.32451340 0 51 185
0.11956507 -0.00856064 0.32451340 0 51 184
0.12016966 -0.00855448 0.32427994 0 51 183
0.12077338 -0.00854833 0.32404681 0 52 183
0.12146349 -0.00854833 0.32404681 0 53 183
0.12206585 -0.00854219 0.32381403 0 55 185
0.12275546 -0.00854219 0.32381403 1 59 192
0.12353382 -0.00854833 0.32404681 4 65 199
0.12431330 -0.00855448 0.32427994 1 62 194
0.12509390 -0.00856064 0.32451340 0 56 188
0.12596638 -0.00857299 0.32498135 0 54 186
0.12665849 -0.00857299 0.32498135 0 54 186
0.12735059 -0.00857299 0.32498135 0 53 185
0.12804269 -0.00857299 0.32498135 6 60 193
0.12873479 -0.00857299 0.32498135 44 108 230
0.12942690 -0.00857299 0.32498135 193 225 252
0.13011899 -0.00857299 0.32498135 224 251 255
0.13081110 -0.00857299 0.32498135 233 254 255
0.13140845 -0.00856681 0.32474722 231 251 253
0.13210005 -0.00856681 0.32474722 229 249 253
0.13279166 -0.00856681 0.32474722 232 251 255
0.13348325 -0.00856681 0.32474722 237 255 255
0.13417485 -0.00856681 0.32474722 236 251 254
0.13476936 -0.00856064 0.32451340 207 223 245
0.13546046 -0.00856064 0.32451340 115 133 168
0.13615157 -0.00856064 0.32451340 160 179 215
0.13674422 -0.00855448 0.32427994 213 234 247
0.13743483 -0.00855448 0.32427994 227 249 252
0.13822488 -0.00856064 0.32451340 217 239 246
0.13891599 -0.00856064 0.32451340 194 218 229
0.13960709 -0.00856064 0.32451340 152 174 197
0.14029819 -0.00856064 0.32451340 120 141 176
0.14098929 -0.00856064 0.32451340 194 215 242
0.14178247 -0.00856681 0.32474722 225 245 255
0.14257680 -0.00857299 0.32498135 196 216 230
0.14347578 -0.00858537 0.32545062 153 174 199
0.14448184 -0.00860400 0.32615710 160 181 204
0.14517644 -0.00860400 0.32615710 226 247 255
0.14597667 -0.00861023 0.32639328 227 248 255
0.14667178 -0.00861023 0.32639328 137 159 172
0.14747368 -0.00861647 0.32662979 68 90 157
0.14806200 -0.00861023 0.32639328 82 104 199
0.14886490 -0.00861647 0.32662979 156 179 244
0.14956052 -0.00861647 0.32662979 223 247 255
0.15025612 -0.00861647 0.32662979 226 250 253
0.15106120 -0.00862272 0.32686667 144 162 201
0.15175731 -0.00862272 0.32686667 128 145 189
0.15256406 -0.00862898 0.32710385 187 206 225
0.15337198 -0.00863524 0.32734140 235 255 255
0.15406911 -0.00863524 0.32734140 217 235 246
0.15476624 -0.00863524 0.32734140 150 159 211
0.15535054 -0.00862898 0.32710385 74 83 136
0.15604716 -0.00862898 0.32710385 107 127 181
0.15663013 -0.00862272 0.32686667 167 192 232
0.15721223 -0.00861647 0.32662979 211 235 255
0.15790785 -0.00861647 0.32662979 217 240 250
0.15860345 -0.00861647 0.32662979 184 207 229
0.15929907 -0.00861647 0.32662979 79 100 191
0.16011070 -0.00862272 0.32686667 45 65 172
0.16092351 -0.00862898 0.32710385 81 109 188
0.16173750 -0.00863524 0.32734140 155 193 227
0.16243463 -0.00863524 0.32734140 213 250 255
0.16313176 -0.00863524 0.32734140 219 238 255
0.16382889 -0.00863524 0.32734140 127 143 168
0.16464558 -0.00864152 0.32757932 51 84 156
0.16546346 -0.00864780 0.32781754 20 70 185
0.16652493 -0.00866671 0.32853436 26 76 191
0.16734657 -0.00867303 0.32877399 27 76 195
0.16816940 -0.00867937 0.32901395 31 79 199
0.16887010 -0.00867937 0.32901395 32 81 192
0.16944710 -0.00867303 0.32877399 62 111 205
0.17014728 -0.00867303 0.32877399 136 184 254
0.17084746 -0.00867303 0.32877399 226 247 255
0.17142259 -0.00866671 0.32853436 238 255 255
0.17199690 -0.00866040 0.32829507 245 254 252
0.17257037 -0.00865410 0.32805612 253 253 249
0.17326903 -0.00865410 0.32805612 253 253 249
0.17409438 -0.00866040 0.32829507 255 252 248
0.17492093 -0.00866671 0.32853436 231 224 220
0.17574870 -0.00867303 0.32877399 233 171 174
0.17644888 -0.00867303 0.32877399 254 119 133
0.17727837 -0.00867937 0.32901395 255 131 145
0.17797905 -0.00867937 0.32901395 255 145 153
0.17867973 -0.00867937 0.32901395 255 150 157
0.18003751 -0.00871116 0.33021915 254 148 155
0.18452740 -0.00872394 0.33070367 255 161 177
0.18523169 -0.00872394 0.33070367 255 168 185
0.18593597 -0.00872394 0.33070367 255 181 195
0.20008452 -0.00911167 0.34540164 255 236 237
0.19823770 -0.00899450 0.34095999 255 244 244
0.19791586 -0.00894713 0.33916412 255 246 246
0.19819078 -0.00892698 0.33840024 254 251 248
0.19861324 -0.00891359 0.33789288 253 253 248
0.19814456 -0.00886046 0.33587863 253 253 248
0.19856395 -0.00884727 0.33537881 253 254 248
0.19883437 -0.00882757 0.33463187 253 254 248
0.19925117 -0.00881448 0.33413574 253 254 248
0.19937160 -0.00878842 0.33314792 253 254 247
0.19949132 -0.00876251 0.33216589 253 254 247
0.19990410 -0.00874962 0.33167706 242 241 235
0.04988011 -0.00777992 0.32081787 0 38 147
0.05052739 -0.00777439 0.32058969 0 39 147
0.05117374 -0.00776886 0.32036185 0 42 149
0.05185600 -0.00776886 0.32036185 0 47 153
0.05253826 -0.00776886 0.32036185 0 45 152
0.05325837 -0.00777439 0.32058969 0 40 148
0.05397952 -0.00777992 0.32081787 0 38 146
0.05470168 -0.00778546 0.32104639 0 38 146
0.05542488 -0.00779101 0.32127521 0 37 149
0.05610909 -0.00779101 0.32127521 0 37 151
0.05679329 -0.00779101 0.32127521 0 37 151
0.05747750 -0.00779101 0.32127521 0 37 151
0.05807892 -0.00777992 0.32081787 0 36 146
0.05872036 -0.00777439 0.32058969 0 34 142
0.05931873 -0.00776334 0.32013431 0 35 139
0.06000050 -0.00776334 0.32013431 0 35 138
0.06068228 -0.00776334 0.32013431 0 35 138
0.06136406 -0.00776334 0.32013431 0 35 138
0.06204584 -0.00776334 0.32013431 0 34 142
0.06277220 -0.00776886 0.32036185 0 36 144
0.06354478 -0.00777992 0.32081787 0 37 145
0.06427377 -0.00778546 0.32104639 0 37 146
0.06500378 -0.00779101 0.32127521 0 39 142
0.06568800 -0.00779101 0.32127521 0 37 140
0.06637220 -0.00779101 0.32127521 0 37 138
0.06700864 -0.00778546 0.32104639 0 36 137
0.06774062 -0.00779101 0.32127521 0 32 136
0.06847363 -0.00779657 0.32150436 0 32 135
0.06915833 -0.00779657 0.32150436 0 31 128
0.06979324 -0.00779101 0.32127521 0 32 129
0.07047745 -0.00779101 0.32127521 0 33 132
0.07116165 -0.00779101 0.32127521 0 34 135
0.07189711 -0.00779657 0.32150436 0 32 143
0.07273745 -0.00781329 0.32219379 1 38 148
0.07347613 -0.00781888 0.32242426 4 45 154
0.07421587 -0.00782447 0.32265506 0 38 148
0.07495667 -0.00783008 0.32288620 0 27 145
0.07569854 -0.00783569 0.32311765 0 25 144
0.07638667 -0.00783569 0.32311765 0 25 143
0.07713009 -0.00784131 0.32334946 0 28 146
0.07781872 -0.00784131 0.32334946 0 33 150
0.07850734 -0.00784131 0.32334946 0 33 150
0.07925282 -0.00784694 0.32358157 0 34 149
0.07999937 -0.00785258 0.32381403 0 34 149
0.08068898 -0.00785258 0.32381403 0 36 151
0.08137859 -0.00785258 0.32381403 0 37 151
0.08206821 -0.00785258 0.32381403 1 46 159
0.08275783 -0.00785258 0.32381403 17 67 180
0.08344744 -0.00785258 0.32381403 21 70 179
0.08413705 -0.00785258 0.32381403 5 52 160
0.08482667 -0.00785258 0.32381403 0 39 148
0.08551628 -0.00785258 0.32381403 0 39 147
0.08614401 -0.00784694 0.32358157 0 37 151
0.08683313 -0.00784694 0.32358157 0 38 152
0.08752225 -0.00784694 0.32358157 0 38 154
0.08821137 -0.00784694 0.32358157 0 38 154
0.08890049 -0.00784694 0.32358157 0 37 156
0.08958961 -0.00784694 0.32358157 0 38 158
0.09027873 -0.00784694 0.32358157 0 41 156
0.09096785 -0.00784694 0.32358157 2 51 165
0.09172282 -0.00785258 0.32381403 20 74 187
0.09241243 -0.00785258 0.32381403 25 80 193
0.09310204 -0.00785258 0.32381403 9 61 174
0.09379166 -0.00785258 0.32381403 1 46 159
0.09448127 -0.00785258 0.32381403 0 41 159
0.09517088 -0.00785258 0.32381403 0 40 161
0.09586050 -0.00785258 0.32381403 0 40 162
0.09655012 -0.00785258 0.32381403 0 41 163
0.09723973 -0.00785258 0.32381403 0 41 163
0.09799975 -0.00785822 0.32404681 0 41 163
0.09868986 -0.00785822 0.32404681 0 41 164
0.09945146 -0.00786388 0.32427994 0 42 167
0.10014207 -0.00786388 0.32427994 2 47 172
0.10083267 -0.00786388 0.32427994 9 61 184
0.10152328 -0.00786388 0.32427994 15 72 195
0.10221389 -0.00786388 0.32427994 6 60 184
0.10283052 -0.00785822 0.32404681 0 43 168
0.10352063 -0.00785822 0.32404681 0 42 168
0.10413587 -0.00785258 0.32381403 0 42 168
0.10482549 -0.00785258 0.32381403 0 43 169
0.10551510 -0.00785258 0.32381403 0 43 169
0.10628107 -0.00785822 0.32404681 0 44 171
0.10697118 -0.00785822 0.32404681 0 44 171
0.10773874 -0.00786388 0.32427994 0 44 173
0.10842935 -0.00786388 0.32427994 0 44 174
0.10919852 -0.00786954 0.32451340 0 45 175
0.10981056 -0.00786388 0.32427994 1 50 179
0.11050117 -0.00786388 0.32427994 1 56 183
0.11103202 -0.00785258 0.32381403 0 54 179
0.11172163 -0.00785258 0.32381403 0 49 173
0.11233055 -0.00784694 0.32358157 0 48 172
0.11293859 -0.00784131 0.32334946 0 49 173
0.11362722 -0.00784131 0.32334946 0 50 176
0.11431584 -0.00784131 0.32334946 0 50 177
0.11516970 -0.00785258 0.32381403 0 51 178
0.11602602 -0.00786388 0.32427994 0 51 178
0.11671663 -0.00786388 0.32427994 0 50 180
0.11749176 -0.00786954 0.32451340 0 50 180
0.11818287 -0.00786954 0.32451340 0 50 183
0.11887397 -0.00786954 0.32451340 0 50 184
0.11947906 -0.00786388 0.32427994 0 50 182
0.12008327 -0.00785822 0.32404681 0 50 180
0.12077338 -0.00785822 0.32404681 0 50 180
0.12137624 -0.00785258 0.32381403 0 51 181
0.12206585 -0.00785258 0.32381403 0 51 182
0.12275546 -0.00785258 0.32381403 0 52 187
0.12344508 -0.00785258 0.32381403 0 55 190
0.12422393 -0.00785822 0.32404681 0 55 189
0.12500391 -0.00786388 0.32427994 0 54 188
0.12578501 -0.00786954 0.32451340 0 53 186
0.12656724 -0.00787521 0.32474722 0 53 184
0.12725883 -0.00787521 0.32474722 0 52 185
0.12795044 -0.00787521 0.32474722 3 56 193
0.12854942 -0.00786954 0.32451340 30 91 218
0.12924052 -0.00786954 0.32451340 179 212 244
0.12993163 -0.00786954 0.32451340 220 250 254
0.13062274 -0.00786954 0.32451340 226 248 255
0.13131384 -0.00786954 0.32451340 187 207 221
0.13200494 -0.00786954 0.32451340 163 181 201
0.13260059 -0.00786388 0.32427994 179 195 218
0.13329118 -0.00786388 0.32427994 213 229 246
0.13398180 -0.00786388 0.32427994 234 250 255
0.13467241 -0.00786388 0.32427994 218 234 251
0.13536301 -0.00786388 0.32427994 112 130 170
0.13595581 -0.00785822 0.32404681 124 141 184
0.13664592 -0.00785822 0.32404681 179 198 233
0.13733603 -0.00785822 0.32404681 207 227 255
0.13812544 -0.00786388 0.32427994 209 230 255
0.13881604 -0.00786388 0.32427994 193 215 241
0.13950665 -0.00786388 0.32427994 137 159 195
0.14019725 -0.00786388 0.32427994 78 99 159
0.14088786 -0.00786388 0.32427994 172 193 240
0.14168040 -0.00786954 0.32451340 221 241 255
0.14237151 -0.00786954 0.32451340 209 229 244
0.14316568 -0.00787521 0.32474722 165 184 211
0.14396100 -0.00788089 0.32498135 156 172 198
0.14465309 -0.00788089 0.32498135 221 238 255
0.14534520 -0.00788089 0.32498135 231 253 255
0.14614267 -0.00788657 0.32521582 153 175 186
0.14683527 -0.00788657 0.32521582 70 87 172
0.14752786 -0.00788657 0.32521582 62 75 198
0.14822046 -0.00788657 0.32521582 128 147 234
0.14891307 -0.00788657 0.32521582 211 239 255
0.14993019 -0.00790368 0.32592126 226 253 254
0.15062428 -0.00790368 0.32592126 167 190 214
0.15131839 -0.00790368 0.32592126 144 167 194
0.15212248 -0.00790940 0.32615710 193 213 226
0.15281709 -0.00790940 0.32615710 235 253 255
0.15351170 -0.00790940 0.32615710 207 221 241
0.15420630 -0.00790940 0.32615710 110 110 186
0.15490091 -0.00790940 0.32615710 52 53 129
0.15559550 -0.00790940 0.32615710 37 62 156
0.15617711 -0.00790368 0.32592126 86 121 215
0.15687122 -0.00790368 0.32592126 166 197 255
0.15767932 -0.00790940 0.32615710 225 249 255
0.15848860 -0.00791512 0.32639328 224 248 255
0.15918372 -0.00791512 0.32639328 141 154 218
0.15987883 -0.00791512 0.32639328 76 87 164
0.16069029 -0.00792086 0.32662979 76 97 168
0.16138589 -0.00792086 0.32662979 136 170 219
0.16208151 -0.00792086 0.32662979 213 247 255
0.16277711 -0.00792086 0.32662979 227 246 255
0.16347273 -0.00792086 0.32662979 147 165 182
0.16416835 -0.00792086 0.32662979 55 94 163
0.16510324 -0.00793236 0.32710385 3 64 181
0.16604085 -0.00794389 0.32757932 12 73 190
0.16698119 -0.00795545 0.32805612 20 75 193
0.16792426 -0.00796705 0.32853436 23 78 196
0.16862393 -0.00796705 0.32853436 19 75 185
0.16932359 -0.00796705 0.32853436 37 93 196
0.17002327 -0.00796705 0.32853436 99 152 246
0.17059859 -0.00796124 0.32829507 212 238 254
0.17117308 -0.00795545 0.32805612 232 253 255
0.17174672 -0.00794966 0.32781754 244 255 251
0.17244487 -0.00794966 0.32781754 253 254 247
0.17314301 -0.00794966 0.32781754 253 254 247
0.17384114 -0.00794966 0.32781754 254 255 248
0.17466632 -0.00795545 0.32805612 239 239 232
0.17549269 -0.00796124 0.32829507 238 183 185
0.17632027 -0.00796705 0.32853436 252 119 134
0.17714905 -0.00797286 0.32877399 254 129 144
0.17784923 -0.00797286 0.32877399 255 149 156
0.17854941 -0.00797286 0.32877399 255 164 167
0.17938043 -0.00797868 0.32901395 252 172 174
0.18008113 -0.00797868 0.32901395 245 176 174
0.18078181 -0.00797868 0.32901395 240 171 169
0.18121796 -0.00796705 0.32853436 242 162 168
0.18218318 -0.00797868 0.32901395 244 155 167
0.18341940 -0.00800204 0.32997739 246 155 167
0.18425703 -0.00800790 0.33021915 254 151 169
0.18496030 -0.00800790 0.33021915 253 154 172
0.18566354 -0.00800790 0.33021915 253 156 175
0.18636681 -0.00800790 0.33021915 252 157 178
0.18720720 -0.00801377 0.33046124 249 160 180
0.18791098 -0.00801377 0.33046124 252 165 183
0.18861475 -0.00801377 0.33046124 251 167 184
0.18931851 -0.00801377 0.33046124 250 169 185
0.19100250 -0.00805511 0.33216589 251 174 189
0.19356424 -0.00813303 0.33537881 252 184 199
0.19456802 -0.00814515 0.33587863 254 198 212
0.19528333 -0.00814515 0.33587863 255 214 226
0.19614481 -0.00815122 0.33612909 255 224 236
0.19686064 -0.00815122 0.33612909 254 245 244
0.19742926 -0.00814515 0.33587863 254 252 247
0.19784970 -0.00813303 0.33537881 254 253 247
0.19812172 -0.00811491 0.33463187 253 253 248
0.19853958 -0.00810288 0.33413574 253 253 248
0.19895621 -0.00809089 0.33364111 253 254 248
0.19878392 -0.00805511 0.33216589 253 254 247
0.19919774 -0.00804326 0.33167706 253 254 247
0.19975711 -0.00803734 0.33143317 244 245 238
0.04984464 -0.00709164 0.32058969 0 38 146
0.05049147 -0.00708660 0.32036185 0 39 147
0.05113739 -0.00708157 0.32013431 0 42 149
0.05181917 -0.00708157 0.32013431 5 53 159
0.05250095 -0.00708157 0.32013431 11 59 165
0.05318272 -0.00708157 0.32013431 5 51 157
0.05394112 -0.00709164 0.32058969 0 41 148
0.05466275 -0.00709669 0.32081787 0 37 145
0.05538540 -0.00710174 0.32104639 0 35 147
0.05610909 -0.00710680 0.32127521 0 35 149
0.05679329 -0.00710680 0.32127521 0 36 150
0.05747750 -0.00710680 0.32127521 0 37 150
0.05812029 -0.00710174 0.32104639 0 36 145
0.05876215 -0.00709669 0.32081787 0 36 144
0.05936089 -0.00708660 0.32036185 0 34 142
0.06000050 -0.00708157 0.32013431 0 37 145
0.06068228 -0.00708157 0.32013431 0 42 146
0.06136406 -0.00708157 0.32013431 1 41 144
0.06204584 -0.00708157 0.32013431 0 36 145
0.06277220 -0.00708660 0.32036185 0 34 144
0.06354478 -0.00709669 0.32081787 0 33 148
0.06422802 -0.00709669 0.32081787 0 32 147
0.06495749 -0.00710174 0.32104639 0 34 143
0.06564120 -0.00710174 0.32104639 0 33 143
0.06632493 -0.00710174 0.32104639 0 33 141
0.06700864 -0.00710174 0.32104639 0 33 141
0.06769237 -0.00710174 0.32104639 0 30 140
0.06842482 -0.00710680 0.32127521 0 31 139
0.06910903 -0.00710680 0.32127521 0 33 132
0.06969389 -0.00709669 0.32081787 0 34 133
0.07037712 -0.00709669 0.32081787 0 33 136
0.07111097 -0.00710174 0.32104639 0 33 136
0.07184586 -0.00710680 0.32127521 0 32 137
0.07273745 -0.00712712 0.32219379 0 35 141
0.07352872 -0.00713733 0.32265506 0 36 146
0.07421587 -0.00713733 0.32265506 0 35 146
0.07501041 -0.00714756 0.32311765 0 33 150
0.07569854 -0.00714756 0.32311765 0 31 148
0.07638667 -0.00714756 0.32311765 0 30 146
0.07707480 -0.00714756 0.32311765 0 30 146
0.07776293 -0.00714756 0.32311765 0 33 147
0.07850734 -0.00715269 0.32334946 0 33 147
0.07925282 -0.00715782 0.32358157 0 33 147
0.07999937 -0.00716296 0.32381403 0 33 147
0.08068898 -0.00716296 0.32381403 0 34 149
0.08137859 -0.00716296 0.32381403 0 36 151
0.08206821 -0.00716296 0.32381403 0 42 156
0.08275783 -0.00716296 0.32381403 2 51 165
0.08338754 -0.00715782 0.32358157 0 43 156
0.08407665 -0.00715782 0.32358157 0 38 151
0.08476578 -0.00715782 0.32358157 0 37 151
0.08545490 -0.00715782 0.32358157 0 37 151
0.08614401 -0.00715782 0.32358157 0 36 151
0.08677084 -0.00715269 0.32334946 0 37 152
0.08745947 -0.00715269 0.32334946 0 34 154
0.08814809 -0.00715269 0.32334946 0 35 155
0.08883672 -0.00715269 0.32334946 0 35 153
0.08952534 -0.00715269 0.32334946 0 36 154
0.09021397 -0.00715269 0.32334946 0 42 160
0.09090260 -0.00715269 0.32334946 4 56 174
0.09165697 -0.00715782 0.32358157 16 71 185
0.09241243 -0.00716296 0.32381403 11 63 176
0.09310204 -0.00716296 0.32381403 2 47 162
0.09379166 -0.00716296 0.32381403 0 41 157
0.09448127 -0.00716296 0.32381403 0 40 160
0.09517088 -0.00716296 0.32381403 0 39 162
0.09586050 -0.00716296 0.32381403 0 40 163
0.09655012 -0.00716296 0.32381403 0 40 163
0.09723973 -0.00716296 0.32381403 0 40 164
0.09792934 -0.00716296 0.32381403 0 40 165
0.09868986 -0.00716811 0.32404681 0 41 166
0.09937997 -0.00716811 0.32404681 0 46 170
0.10014207 -0.00717327 0.32427994 7 60 184
0.10083267 -0.00717327 0.32427994 27 83 207
0.10152328 -0.00717327 0.32427994 28 84 208
0.10214040 -0.00716811 0.32404681 6 60 183
0.10283052 -0.00716811 0.32404681 0 43 167
0.10344626 -0.00716296 0.32381403 0 43 169
0.10413587 -0.00716296 0.32381403 0 43 169
0.10482549 -0.00716296 0.32381403 0 44 171
0.10551510 -0.00716296 0.32381403 0 44 171
0.10628107 -0.00716811 0.32404681 0 44 173
0.10697118 -0.00716811 0.32404681 0 44 173
0.10773874 -0.00717327 0.32427994 0 44 174
0.10842935 -0.00717327 0.32427994 0 46 175
0.10911996 -0.00717327 0.32427994 6 59 186
0.10981056 -0.00717327 0.32427994 17 77 203
0.11042173 -0.00716811 0.32404681 15 79 205
0.11103202 -0.00716296 0.32381403 3 62 186
0.11172163 -0.00716296 0.32381403 0 49 174
0.11233055 -0.00715782 0.32358157 0 48 175
0.11293859 -0.00715269 0.32334946 0 48 175
0.11362722 -0.00715269 0.32334946 0 48 178
0.11431584 -0.00715269 0.32334946 0 48 178
0.11525250 -0.00716811 0.32404681 0 48 178
0.11602602 -0.00717327 0.32427994 0 49 179
0.11671663 -0.00717327 0.32427994 0 49 181
0.11749176 -0.00717843 0.32451340 0 49 182
0.11818287 -0.00717843 0.32451340 0 51 183
0.11887397 -0.00717843 0.32451340 1 58 189
0.11947906 -0.00717327 0.32427994 1 61 192
0.12008327 -0.00716811 0.32404681 0 56 185
0.12077338 -0.00716811 0.32404681 0 51 181
0.12137624 -0.00716296 0.32381403 0 50 183
0.12206585 -0.00716296 0.32381403 0 51 184
0.12275546 -0.00716296 0.32381403 0 53 185
0.12344508 -0.00716296 0.32381403 0 54 186
0.12422393 -0.00716811 0.32404681 0 53 187
0.12509390 -0.00717843 0.32451340 0 53 188
0.12578501 -0.00717843 0.32451340 0 53 186
0.12656724 -0.00718361 0.32474722 0 53 185
0.12725883 -0.00718361 0.32474722 0 53 185
0.12785832 -0.00717843 0.32451340 1 54 186
0.12854942 -0.00717843 0.32451340 18 71 194
0.12914755 -0.00717327 0.32427994 159 191 227
0.12983815 -0.00717327 0.32427994 215 246 251
0.13052876 -0.00717327 0.32427994 224 241 255
0.13112503 -0.00716811 0.32404681 145 157 179
0.13181514 -0.00716811 0.32404681 77 94 149
0.13250525 -0.00716811 0.32404681 85 106 189
0.13319536 -0.00716811 0.32404681 158 179 241
0.13388548 -0.00716811 0.32404681 228 247 255
0.13457559 -0.00716811 0.32404681 227 246 253
0.13516852 -0.00716296 0.32381403 125 137 192
0.13585814 -0.00716296 0.32381403 70 82 141
0.13654774 -0.00716296 0.32381403 65 85 169
0.13723737 -0.00716296 0.32381403 68 93 191
0.13802614 -0.00716811 0.32404681 75 98 193
0.13881604 -0.00717327 0.32427994 72 93 184
0.13950665 -0.00717327 0.32427994 52 73 165
0.14019725 -0.00717327 0.32427994 48 71 165
0.14088786 -0.00717327 0.32427994 157 180 241
0.14157848 -0.00717327 0.32427994 220 240 255
0.14237151 -0.00717843 0.32451340 219 239 249
0.14306261 -0.00717843 0.32451340 167 187 211
0.14375371 -0.00717843 0.32451340 139 157 189
0.14444481 -0.00717843 0.32451340 211 230 255
0.14513593 -0.00717843 0.32451340 231 251 255
0.14582703 -0.00717843 0.32451340 179 199 218
0.14651813 -0.00717843 0.32451340 73 92 181
0.14720923 -0.00717843 0.32451340 45 63 182
0.14790033 -0.00717843 0.32451340 107 129 214
0.14859143 -0.00717843 0.32451340 198 226 249
0.14939009 -0.00718361 0.32474722 226 253 254
0.15008170 -0.00718361 0.32474722 185 209 231
0.15088200 -0.00718878 0.32498135 146 169 195
0.15168346 -0.00719397 0.32521582 186 205 223
0.15248608 -0.00719917 0.32545062 229 245 255
0.15317918 -0.00719917 0.32545062 209 223 244
0.15398346 -0.00720437 0.32568579 120 125 200
0.15478891 -0.00720958 0.32592126 55 60 135
0.15548300 -0.00720958 0.32592126 22 51 161
0.15617711 -0.00720958 0.32592126 45 84 208
0.15687122 -0.00720958 0.32592126 121 158 243
0.15767932 -0.00721479 0.32615710 205 239 255
0.15837393 -0.00721479 0.32615710 222 255 255
0.15918372 -0.00722002 0.32639328 181 198 233
0.15987883 -0.00722002 0.32639328 98 111 154
0.16069029 -0.00722525 0.32662979 69 91 150
0.16138589 -0.00722525 0.32662979 118 150 211
0.16196414 -0.00722002 0.32639328 204 235 255
0.16265926 -0.00722002 0.32639328 222 251 255
0.16335435 -0.00722002 0.32639328 168 197 210
0.16393077 -0.00721479 0.32615710 73 114 182
0.16462537 -0.00721479 0.32615710 8 61 179
0.16579985 -0.00723574 0.32710385 17 70 188
0.16673848 -0.00724625 0.32757932 17 72 191
0.16767982 -0.00725680 0.32805612 20 75 195
0.16850111 -0.00726209 0.32829507 18 75 188
0.16920027 -0.00726209 0.32829507 31 88 195
0.16977577 -0.00725680 0.32805612 81 135 230
0.17047443 -0.00725680 0.32805612 193 224 252
0.17104858 -0.00725152 0.32781754 224 249 255
0.17162192 -0.00724625 0.32757932 242 255 251
0.17231955 -0.00724625 0.32757932 253 254 247
0.17301718 -0.00724625 0.32757932 253 254 247
0.17371481 -0.00724625 0.32757932 253 254 247
0.17441245 -0.00724625 0.32757932 246 247 240
0.17523743 -0.00725152 0.32781754 245 197 198
0.17606361 -0.00725680 0.32805612 250 129 143
0.17689101 -0.00726209 0.32829507 246 125 140
0.17759016 -0.00726209 0.32829507 253 152 156
0.17828932 -0.00726209 0.32829507 255 188 188
0.17911894 -0.00726738 0.32853436 255 225 220
0.17981862 -0.00726738 0.32853436 255 255 238
0.18051828 -0.00726738 0.32853436 255 255 238
0.18108597 -0.00726209 0.32829507 255 249 237
0.18191762 -0.00726738 0.32853436 253 244 234
0.18288388 -0.00727799 0.32901395 252 238 230
0.18398746 -0.00729396 0.32973602 254 226 224
0.18482489 -0.00729930 0.32997739 249 218 217
0.18552763 -0.00729930 0.32997739 248 210 212
0.18623038 -0.00729930 0.32997739 248 204 208
0.18693311 -0.00729930 0.32997739 240 197 201
0.18763585 -0.00729930 0.32997739 246 191 199
0.18861475 -0.00731000 0.33046124 246 186 195
0.18931851 -0.00731000 0.33046124 243 184 194
0.19002229 -0.00731000 0.33046124 245 178 192
0.19170992 -0.00734771 0.33216589 248 180 195
0.19413405 -0.00741327 0.33512946 252 184 200
0.19513792 -0.00742431 0.33562854 254 190 207
0.19585271 -0.00742431 0.33562854 248 198 215
0.19656747 -0.00742431 0.33562854 253 229 233
0.19728226 -0.00742431 0.33562854 255 244 243
0.19784970 -0.00741878 0.33537881 255 249 247
0.19782799 -0.00739129 0.33413574 253 254 247
0.19853958 -0.00739129 0.33413574 253 254 247
0.19895621 -0.00738034 0.33364111 253 254 247
0.19878392 -0.00734771 0.33216589 253 254 247
0.19905127 -0.00733150 0.33143317 253 254 247
0.19961034 -0.00732612 0.33118967 250 251 244
0.05034834 -0.00638618 0.31945367 0 38 146
0.05102866 -0.00638618 0.31945367 0 41 147
0.05170899 -0.00638618 0.31945367 0 48 153
0.05238932 -0.00638618 0.31945367 3 57 161
0.05314498 -0.00639525 0.31990710 4 60 163
0.05386450 -0.00639979 0.32013431 1 52 156
0.05458505 -0.00640434 0.32036185 0 41 146
0.05534598 -0.00641345 0.32081787 0 36 146
0.05606912 -0.00641802 0.32104639 0 35 147
0.05687437 -0.00643176 0.32173386 0 34 143
0.05755956 -0.00643176 0.32173386 0 35 142
0.05824474 -0.00643176 0.32173386 0 35 142
0.06427377 -0.00641802 0.32104639 0 32 142
0.06495749 -0.00641802 0.32104639 0 32 140
0.06550124 -0.00640434 0.32036185 0 32 140
0.06618351 -0.00640434 0.32036185 0 32 140
0.06681828 -0.00639979 0.32013431 0 32 140
0.06750006 -0.00639979 0.32013431 0 32 141
0.06818184 -0.00639979 0.32013431 0 32 140
0.06886362 -0.00639979 0.32013431 0 38 139
0.06944675 -0.00639071 0.31968024 0 43 143
0.07012756 -0.00639071 0.31968024 1 40 143
0.07090895 -0.00639979 0.32013431 0 35 138
0.07179469 -0.00641802 0.32104639 0 32 139
0.07258180 -0.00642718 0.32150436 0 32 140
0.07352872 -0.00645018 0.32265506 0 32 144
0.07421587 -0.00645018 0.32265506 0 32 144
0.07501041 -0.00645943 0.32311765 0 32 143
0.07569854 -0.00645943 0.32311765 0 32 143
0.07638667 -0.00645943 0.32311765 0 32 143
0.07707480 -0.00645943 0.32311765 0 32 143
0.07776293 -0.00645943 0.32311765 0 33 147
0.07850734 -0.00646406 0.32334946 0 35 148
0.07925282 -0.00646870 0.32358157 0 35 149
0.07999937 -0.00647335 0.32381403 0 35 148
0.08068898 -0.00647335 0.32381403 0 34 147
0.08132018 -0.00646870 0.32358157 0 35 148
0.08200930 -0.00646870 0.32358157 0 35 150
0.08269842 -0.00646870 0.32358157 0 37 151
0.08338754 -0.00646870 0.32358157 0 36 149
0.08407665 -0.00646870 0.32358157 0 35 148
0.08470496 -0.00646406 0.32334946 0 35 150
0.08539359 -0.00646406 0.32334946 0 35 150
0.08602051 -0.00645943 0.32311765 0 35 150
0.08670864 -0.00645943 0.32311765 0 35 150
0.08739677 -0.00645943 0.32311765 0 34 152
0.08814809 -0.00646406 0.32334946 0 34 152
0.08877303 -0.00645943 0.32311765 0 34 149
0.08939708 -0.00645480 0.32288620 0 34 150
0.09008472 -0.00645480 0.32288620 0 40 158
0.09090260 -0.00646406 0.32334946 0 48 166
0.09165697 -0.00646870 0.32358157 0 49 165
0.09241243 -0.00647335 0.32381403 0 44 159
0.09310204 -0.00647335 0.32381403 0 40 159
0.09379166 -0.00647335 0.32381403 0 40 160
0.09448127 -0.00647335 0.32381403 0 39 161
0.09517088 -0.00647335 0.32381403 0 39 161
0.09572297 -0.00646406 0.32334946 0 39 160
0.09641159 -0.00646406 0.32334946 0 40 160
0.09716992 -0.00646870 0.32358157 0 39 162
0.09785904 -0.00646870 0.32358157 0 39 164
0.09861896 -0.00647335 0.32381403 0 41 166
0.09937997 -0.00647800 0.32404681 0 49 172
0.10014207 -0.00648266 0.32427994 7 64 187
0.10083267 -0.00648266 0.32427994 19 74 198
0.10152328 -0.00648266 0.32427994 11 61 186
0.10214040 -0.00647800 0.32404681 0 46 171
0.10283052 -0.00647800 0.32404681 0 43 167
0.10344626 -0.00647335 0.32381403 0 43 169
0.10413587 -0.00647335 0.32381403 0 42 168
0.10482549 -0.00647335 0.32381403 0 44 171
0.10551510 -0.00647335 0.32381403 0 44 171
0.10628107 -0.00647800 0.32404681 0 44 174
0.10697118 -0.00647800 0.32404681 0 43 174
0.10773874 -0.00648266 0.32427994 0 46 175
0.10842935 -0.00648266 0.32427994 1 55 183
0.10911996 -0.00648266 0.32427994 19 81 207
0.10981056 -0.00648266 0.32427994 32 97 221
0.11042173 -0.00647800 0.32404681 19 82 206
0.11103202 -0.00647335 0.32381403 2 57 181
0.11172163 -0.00647335 0.32381403 0 48 174
0.11241125 -0.00647335 0.32381403 0 47 177
0.11293859 -0.00646406 0.32334946 0 46 176
0.11362722 -0.00646406 0.32334946 0 46 177
0.11431584 -0.00646406 0.32334946 0 47 178
0.11525250 -0.00647800 0.32404681 0 48 178
0.11602602 -0.00648266 0.32427994 0 48 179
0.11680066 -0.00648733 0.32451340 0 49 181
0.11757641 -0.00649200 0.32474722 0 55 186
0.11826801 -0.00649200 0.32474722 12 72 203
0.11887397 -0.00648733 0.32451340 24 89 219
0.11947906 -0.00648266 0.32427994 18 83 213
0.12008327 -0.00647800 0.32404681 0 60 189
0.12077338 -0.00647800 0.32404681 0 51 182
0.12137624 -0.00647335 0.32381403 0 50 184
0.12206585 -0.00647335 0.32381403 0 50 184
0.12275546 -0.00647335 0.32381403 0 52 186
0.12353382 -0.00647800 0.32404681 0 52 187
0.12431330 -0.00648266 0.32427994 0 52 187
0.12509390 -0.00648733 0.32451340 0 53 188
0.12587563 -0.00649200 0.32474722 0 53 187
0.12665849 -0.00649668 0.32498135 0 54 186
0.12725883 -0.00649200 0.32474722 2 60 190
0.12785832 -0.00648733 0.32451340 6 71 193
0.12845694 -0.00648266 0.32427994 13 74 189
0.12914755 -0.00648266 0.32427994 138 175 216
0.12974481 -0.00647800 0.32404681 208 244 250
0.13043492 -0.00647800 0.32404681 225 248 255
0.13103084 -0.00647335 0.32381403 147 166 180
0.13172044 -0.00647335 0.32381403 59 82 152
0.13241006 -0.00647335 0.32381403 48 75 191
0.13309969 -0.00647335 0.32381403 126 151 239
0.13378929 -0.00647335 0.32381403 221 244 255
0.13447891 -0.00647335 0.32381403 229 251 254
0.13516852 -0.00647335 0.32381403 151 161 215
0.13585814 -0.00647335 0.32381403 66 75 134
0.13654774 -0.00647335 0.32381403 48 70 155
0.13723737 -0.00647335 0.32381403 87 116 211
0.13792699 -0.00647335 0.32381403 119 146 226
0.13871625 -0.00647800 0.32404681 106 129 191
0.13950665 -0.00648266 0.32427994 71 93 156
0.14019725 -0.00648266 0.32427994 97 117 182
0.14088786 -0.00648266 0.32427994 193 212 244
0.14168040 -0.00648733 0.32451340 228 248 255
0.14237151 -0.00648733 0.32451340 218 240 248
0.14306261 -0.00648733 0.32451340 152 173 199
0.14375371 -0.00648733 0.32451340 116 133 174
0.14444481 -0.00648733 0.32451340 199 216 252
0.14513593 -0.00648733 0.32451340 231 252 255
0.14582703 -0.00648733 0.32451340 200 222 234
0.14651813 -0.00648733 0.32451340 87 109 188
0.14710332 -0.00648266 0.32427994 37 59 168
0.14779393 -0.00648266 0.32427994 84 110 192
0.14848454 -0.00648266 0.32427994 179 211 241
0.14928255 -0.00648733 0.32451340 222 253 254
0.14997365 -0.00648733 0.32451340 203 227 247
0.15066475 -0.00648733 0.32451340 143 166 188
0.15135585 -0.00648733 0.32451340 173 190 216
0.15215649 -0.00649200 0.32474722 223 236 255
0.15295830 -0.00649668 0.32498135 222 235 251
0.15387228 -0.00650607 0.32545062 159 174 231
0.15467706 -0.00651077 0.32568579 57 71 129
0.15548300 -0.00651547 0.32592126 21 53 159
0.15617711 -0.00651547 0.32592126 28 67 192
0.15698473 -0.00652019 0.32615710 96 134 221
0.15767932 -0.00652019 0.32615710 195 230 249
0.15848860 -0.00652491 0.32639328 224 255 255
0.15929907 -0.00652964 0.32662979 204 221 252
0.15999467 -0.00652964 0.32662979 108 122 160
0.16069029 -0.00652964 0.32662979 61 80 142
0.16126904 -0.00652491 0.32639328 98 122 198
0.16196414 -0.00652491 0.32639328 194 219 255
0.16265926 -0.00652491 0.32639328 219 249 255
0.16323616 -0.00652019 0.32615710 189 220 232
0.16393077 -0.00652019 0.32615710 96 129 196
0.16462537 -0.00652019 0.32615710 21 56 173
0.16531998 -0.00652019 0.32615710 26 64 182
0.16661739 -0.00654386 0.32734140 12 70 188
0.16755788 -0.00655338 0.32781754 15 75 193
0.16837848 -0.00655815 0.32805612 14 74 194
0.16907713 -0.00655815 0.32805612 18 78 200
0.16965230 -0.00655338 0.32781754 52 108 219
0.17022664 -0.00654862 0.32757932 172 208 243
0.17092427 -0.00654862 0.32757932 214 244 252
0.17149727 -0.00654386 0.32734140 240 255 251
0.17219440 -0.00654386 0.32734140 253 254 247
0.17289153 -0.00654386 0.32734140 253 254 247
0.17358865 -0.00654386 0.32734140 253 254 247
0.17428578 -0.00654386 0.32734140 251 252 245
0.17511008 -0.00654862 0.32757932 251 213 214
0.17580771 -0.00654862 0.32757932 247 152 165
0.17663371 -0.00655338 0.32781754 222 126 139
0.17733185 -0.00655338 0.32781754 246 139 143
0.17815956 -0.00655815 0.32805612 255 174 174
0.17885822 -0.00655815 0.32805612 254 216 211
0.17955687 -0.00655815 0.32805612 253 253 236
0.18025552 -0.00655815 0.32805612 253 254 237
0.18095416 -0.00655815 0.32805612 253 255 239
0.18165282 -0.00655815 0.32805612 253 255 241
0.18261728 -0.00656771 0.32853436 253 255 241
0.18358456 -0.00657730 0.32901395 253 255 241
0.18441986 -0.00658210 0.32925430 253 255 241
0.18525639 -0.00658692 0.32949496 253 255 242
0.18582227 -0.00658210 0.32925430 254 255 244
0.18679636 -0.00659173 0.32973602 253 254 243
0.18749860 -0.00659173 0.32973602 253 254 243
0.18820082 -0.00659173 0.32973602 253 254 243
0.18890305 -0.00659173 0.32973602 253 253 243
